0.449000,0.449000,0.449000,0.449000,0.449000,0.449000,0.449000,0.449000,0.449000,0.448000,0.448000,0.449000,0.449000,0.449000,0.448000,0.448000,0.448000,0.448000,0.448000,0.448000,0.448000,0.448000,0.448000,0.448000,0.448000,0.448000,0.448000,0.448000,0.448000,0.448000,0.448000,0.448000,0.449000,0.449000,0.450000,0.451000,0.451000,0.451000,0.452000,0.452000,0.453000,0.455000,0.455000,0.456000,0.457000,0.457000,0.459000,0.460000,0.460000,0.462000,0.462000,0.466000,0.468000,0.469000,0.469000,0.470000,0.470000,0.472000,0.473000,0.473000,0.648000,0.648000,0.648000,0.648000,0.648000,0.648000,0.649000,0.649000,0.649000,0.649000,0.649000,0.649000,0.649000,0.649000,0.649000,0.649000,0.649000,0.649000,0.649000,0.649000,0.649000,0.649000,0.649000,0.649000,0.648000,0.648000,0.649000,0.649000,0.648000,0.648000,0.648000,0.648000,0.648000,0.648000,0.648000,0.648000,0.648000,0.648000,0.648000,0.648000,0.648000,0.649000,0.649000,0.649000,0.649000,0.649000,0.648000,0.648000,0.648000,0.647000,0.647000,0.647000,0.647000,0.647000,0.647000,0.647000,0.647000,0.647000,0.647000,0.647000,0.647000,0.647000,0.647000,0.647000,0.646000,0.646000,0.646000,0.646000,0.646000,0.646000,0.645000,0.645000,0.645000,0.645000,0.646000,0.646000,0.646000,0.646000,0.646000,0.647000,0.647000,0.647000,0.647000,0.647000,0.649000,0.651000,0.651000,0.651000,0.652000,0.652000,0.653000,0.653000,0.653000,0.653000,0.653000,0.653000,0.653000,0.653000,0.651000,0.651000,0.651000,0.000000,0.000000,0.000000,0.000000,0.000000,0.000000,0.000000,0.000000,0.000000,0.000000,0.000000,0.000000,0.000000,0.000000,0.000000,0.000000,0.000000,0.000000,0.000000,0.000000,0.000000,0.000000,0.000000,0.000000,0.000000,0.000000,0.642000,0.642000,0.642000,0.643000,0.643000,0.643000,0.000000,0.644000,0.644000,0.645000,0.645000,0.000000,0.000000,0.000000,0.000000,0.000000,0.000000,0.000000,0.645000,0.645000,0.645000,0.645000,0.645000,0.645000,0.646000,0.647000,0.647000,0.647000,0.647000,0.647000,0.648000,0.648000,0.648000,0.649000,0.649000,0.649000,0.649000,0.649000,0.649000,0.649000,0.649000,0.649000,0.648000,0.647000,0.647000,0.647000,0.647000,0.647000,0.645000,0.645000,0.645000,0.645000,0.645000,0.645000,0.645000,0.645000,0.645000,0.646000,0.646000,0.646000,0.646000,0.646000,0.647000,0.647000,0.647000,0.647000,0.647000,0.647000,0.647000,0.647000,0.647000,0.647000,0.647000,0.648000,0.648000,0.647000,0.647000,0.647000,0.646000,0.646000,0.645000,0.645000,0.645000,0.645000,0.645000,0.645000,0.645000,0.645000,0.645000,0.645000,0.645000,0.644000,0.644000,0.644000,0.644000,0.644000,0.644000,0.644000,0.643000,0.643000,0.643000,0.643000,0.642000,0.642000,0.642000,0.643000,0.643000,0.643000,0.643000,0.643000,0.643000,0.643000,0.643000,0.644000,0.644000,0.645000,0.645000,0.645000,0.645000,0.646000,0.646000,0.646000,0.646000,0.646000,0.647000,0.647000,0.647000,0.648000,0.648000,0.649000,0.649000,0.649000,0.649000,0.649000,0.649000,0.649000,0.649000,1.620000,1.620000,1.620000,1.624000,1.629000,1.629000,1.633000
0.451000,0.451000,0.451000,0.451000,0.450000,0.450000,0.450000,0.450000,0.450000,0.450000,0.450000,0.451000,0.450000,0.450000,0.450000,0.450000,0.450000,0.450000,0.450000,0.450000,0.450000,0.450000,0.450000,0.450000,0.450000,0.450000,0.450000,0.450000,0.450000,0.450000,0.450000,0.450000,0.451000,0.451000,0.451000,0.452000,0.452000,0.453000,0.453000,0.453000,0.454000,0.456000,0.456000,0.457000,0.459000,0.459000,0.460000,0.462000,0.462000,0.464000,0.466000,0.466000,0.468000,0.469000,0.469000,0.470000,0.470000,0.472000,0.473000,0.473000,0.647000,0.647000,0.647000,0.647000,0.647000,0.647000,0.647000,0.648000,0.648000,0.648000,0.648000,0.648000,0.648000,0.648000,0.648000,0.648000,0.648000,0.648000,0.648000,0.647000,0.647000,0.647000,0.647000,0.647000,0.647000,0.647000,0.647000,0.647000,0.647000,0.647000,0.648000,0.648000,0.648000,0.648000,0.648000,0.648000,0.648000,0.648000,0.648000,0.648000,0.648000,0.649000,0.649000,0.649000,0.649000,0.649000,0.648000,0.648000,0.648000,0.647000,0.647000,0.647000,0.647000,0.647000,0.647000,0.647000,0.647000,0.647000,0.647000,0.647000,0.647000,0.647000,0.647000,0.647000,0.646000,0.646000,0.646000,0.646000,0.646000,0.646000,0.645000,0.645000,0.645000,0.645000,0.645000,0.645000,0.645000,0.645000,0.645000,0.645000,0.646000,0.646000,0.646000,0.646000,0.647000,0.649000,0.649000,0.650000,0.651000,0.651000,0.652000,0.653000,0.652000,0.652000,0.651000,0.651000,0.651000,0.650000,0.649000,0.649000,0.649000,0.000000,0.000000,0.000000,0.000000,0.000000,0.000000,0.000000,0.000000,0.000000,0.000000,0.000000,0.000000,0.000000,0.000000,0.000000,0.000000,0.000000,0.000000,0.000000,0.000000,0.642000,0.642000,0.642000,0.642000,0.642000,0.642000,0.642000,0.642000,0.642000,0.643000,0.643000,0.643000,0.643000,0.643000,0.643000,0.644000,0.644000,0.644000,0.645000,0.645000,0.645000,0.645000,0.645000,0.645000,0.645000,0.645000,0.645000,0.645000,0.645000,0.645000,0.646000,0.647000,0.647000,0.647000,0.647000,0.647000,0.648000,0.648000,0.648000,0.649000,0.649000,0.649000,0.649000,0.649000,0.649000,0.649000,0.649000,0.649000,0.648000,0.647000,0.647000,0.647000,0.647000,0.647000,0.645000,0.645000,0.645000,0.645000,0.645000,0.645000,0.645000,0.645000,0.645000,0.646000,0.646000,0.646000,0.646000,0.645000,0.645000,0.645000,0.645000,0.645000,0.645000,0.646000,0.646000,0.646000,0.646000,0.646000,0.646000,0.646000,0.646000,0.646000,0.646000,0.645000,0.645000,0.645000,0.644000,0.644000,0.643000,0.643000,0.643000,0.643000,0.643000,0.643000,0.643000,0.643000,0.643000,0.643000,0.643000,0.643000,0.643000,0.643000,0.643000,0.643000,0.642000,0.641000,0.641000,0.641000,0.641000,0.642000,0.642000,0.642000,0.642000,0.642000,0.642000,0.642000,0.642000,0.643000,0.643000,0.643000,0.643000,0.643000,0.644000,0.644000,0.645000,0.645000,0.645000,0.645000,0.645000,0.645000,0.645000,0.645000,0.646000,0.647000,0.647000,0.647000,0.648000,0.648000,0.649000,0.649000,0.649000,0.649000,0.649000,1.620000,1.624000,1.624000,1.629000,1.629000,1.629000,1.633000
0.451000,0.451000,0.451000,0.451000,0.450000,0.450000,0.450000,0.450000,0.450000,0.450000,0.450000,0.451000,0.450000,0.450000,0.450000,0.450000,0.450000,0.450000,0.450000,0.450000,0.450000,0.452000,0.452000,0.452000,0.452000,0.451000,0.451000,0.451000,0.451000,0.452000,0.452000,0.452000,0.452000,0.452000,0.453000,0.453000,0.453000,0.454000,0.455000,0.455000,0.456000,0.457000,0.457000,0.459000,0.460000,0.460000,0.462000,0.464000,0.464000,0.466000,0.468000,0.468000,0.470000,0.471000,0.471000,0.473000,0.474000,0.474000,0.645000,0.645000,0.645000,0.645000,0.645000,0.646000,0.646000,0.646000,0.646000,0.647000,0.647000,0.647000,0.647000,0.647000,0.647000,0.647000,0.647000,0.647000,0.647000,0.647000,0.647000,0.647000,0.647000,0.647000,0.647000,0.647000,0.647000,0.647000,0.647000,0.647000,0.647000,0.647000,0.647000,0.647000,0.647000,0.647000,0.647000,0.647000,0.647000,0.647000,0.647000,0.647000,0.647000,0.647000,0.647000,0.647000,0.647000,0.647000,0.647000,0.647000,0.646000,0.646000,0.646000,0.646000,0.646000,0.646000,0.646000,0.646000,0.646000,0.646000,0.646000,0.646000,0.646000,0.646000,0.645000,0.645000,0.645000,0.645000,0.645000,0.645000,0.645000,0.645000,0.645000,0.645000,0.645000,0.645000,0.645000,0.645000,0.645000,0.645000,0.645000,0.645000,0.646000,0.646000,0.646000,0.646000,0.647000,0.649000,0.649000,0.650000,0.651000,0.651000,0.652000,0.653000,0.652000,0.652000,0.651000,0.651000,0.651000,0.650000,0.649000,0.649000,0.649000,0.000000,0.000000,0.000000,0.000000,0.000000,0.000000,0.000000,0.000000,0.000000,0.000000,0.000000,0.000000,0.000000,0.000000,0.000000,0.000000,0.000000,0.000000,0.643000,0.643000,0.642000,0.642000,0.642000,0.641000,0.641000,0.641000,0.642000,0.642000,0.642000,0.643000,0.643000,0.643000,0.643000,0.643000,0.643000,0.643000,0.643000,0.643000,0.644000,0.644000,0.645000,0.643000,0.643000,0.644000,0.644000,0.645000,0.645000,0.645000,0.645000,0.645000,0.645000,0.646000,0.646000,0.647000,0.647000,0.647000,0.647000,0.647000,0.647000,0.648000,0.648000,0.648000,0.648000,0.648000,0.648000,0.648000,0.647000,0.647000,0.647000,0.647000,0.647000,0.646000,0.645000,0.645000,0.645000,0.645000,0.644000,0.644000,0.644000,0.644000,0.644000,0.644000,0.644000,0.644000,0.644000,0.644000,0.644000,0.644000,0.645000,0.645000,0.645000,0.645000,0.645000,0.646000,0.646000,0.646000,0.646000,0.646000,0.646000,0.646000,0.646000,0.646000,0.646000,0.645000,0.645000,0.645000,0.644000,0.644000,0.643000,0.643000,0.643000,0.643000,0.643000,0.643000,0.643000,0.643000,0.643000,0.643000,0.643000,0.643000,0.643000,0.643000,0.643000,0.643000,0.642000,0.641000,0.641000,0.641000,0.641000,0.642000,0.641000,0.641000,0.641000,0.641000,0.641000,0.641000,0.641000,0.642000,0.642000,0.642000,0.642000,0.643000,0.643000,0.643000,0.643000,0.643000,0.643000,0.644000,0.644000,0.644000,0.645000,0.645000,0.645000,0.646000,0.646000,0.647000,0.647000,0.647000,0.648000,0.648000,0.648000,0.649000,0.649000,1.620000,1.620000,1.620000,1.624000,1.629000,1.629000,1.633000
0.452000,0.452000,0.452000,0.452000,0.452000,0.452000,0.452000,0.452000,0.452000,0.452000,0.452000,0.452000,0.452000,0.452000,0.452000,0.452000,0.452000,0.451000,0.451000,0.451000,0.451000,0.452000,0.452000,0.452000,0.452000,0.451000,0.451000,0.451000,0.451000,0.452000,0.452000,0.452000,0.452000,0.452000,0.453000,0.453000,0.453000,0.454000,0.455000,0.455000,0.456000,0.457000,0.457000,0.459000,0.460000,0.460000,0.462000,0.464000,0.464000,0.466000,0.468000,0.468000,0.470000,0.471000,0.471000,0.473000,0.474000,0.474000,0.645000,0.645000,0.645000,0.645000,0.645000,0.646000,0.646000,0.646000,0.646000,0.647000,0.647000,0.647000,0.647000,0.647000,0.647000,0.647000,0.647000,0.647000,0.647000,0.647000,0.647000,0.647000,0.647000,0.647000,0.647000,0.647000,0.647000,0.647000,0.647000,0.647000,0.647000,0.647000,0.647000,0.647000,0.647000,0.647000,0.647000,0.647000,0.647000,0.647000,0.647000,0.647000,0.647000,0.646000,0.646000,0.646000,0.646000,0.646000,0.645000,0.645000,0.645000,0.645000,0.645000,0.645000,0.645000,0.645000,0.645000,0.645000,0.645000,0.645000,0.645000,0.645000,0.645000,0.645000,0.645000,0.645000,0.645000,0.645000,0.645000,0.645000,0.645000,0.645000,0.644000,0.644000,0.644000,0.644000,0.644000,0.644000,0.644000,0.645000,0.645000,0.645000,0.645000,0.645000,0.646000,0.646000,0.647000,0.648000,0.648000,0.649000,0.651000,0.651000,0.651000,0.651000,0.651000,0.651000,0.651000,0.650000,0.650000,0.649000,0.649000,0.647000,0.647000,0.000000,0.000000,0.000000,0.000000,0.000000,0.000000,0.000000,0.000000,0.000000,0.000000,0.000000,0.000000,0.000000,0.000000,0.000000,0.000000,0.000000,0.000000,0.643000,0.643000,0.643000,0.643000,0.642000,0.641000,0.641000,0.641000,0.642000,0.642000,0.642000,0.643000,0.643000,0.643000,0.643000,0.643000,0.643000,0.643000,0.643000,0.643000,0.644000,0.644000,0.645000,0.643000,0.643000,0.644000,0.644000,0.645000,0.645000,0.645000,0.645000,0.645000,0.645000,0.646000,0.646000,0.647000,0.647000,0.647000,0.647000,0.647000,0.647000,0.647000,0.647000,0.647000,0.647000,0.647000,0.647000,0.647000,0.647000,0.647000,0.646000,0.645000,0.645000,0.645000,0.645000,0.644000,0.643000,0.643000,0.643000,0.643000,0.643000,0.643000,0.643000,0.643000,0.643000,0.643000,0.643000,0.643000,0.643000,0.643000,0.643000,0.643000,0.643000,0.644000,0.644000,0.644000,0.645000,0.645000,0.645000,0.645000,0.645000,0.645000,0.645000,0.644000,0.644000,0.644000,0.643000,0.643000,0.643000,0.643000,0.642000,0.642000,0.642000,0.641000,0.641000,0.641000,0.641000,0.641000,0.641000,0.641000,0.641000,0.641000,0.641000,0.641000,0.641000,0.641000,0.641000,0.641000,0.641000,0.641000,0.641000,0.641000,0.641000,0.641000,0.641000,0.641000,0.641000,0.641000,0.641000,0.642000,0.642000,0.642000,0.642000,0.643000,0.643000,0.643000,0.643000,0.643000,0.643000,0.644000,0.644000,0.644000,0.645000,0.645000,0.645000,0.646000,0.646000,0.647000,0.647000,0.647000,0.648000,0.648000,0.648000,0.649000,0.649000,1.620000,1.620000,1.620000,1.624000,1.629000,1.629000,1.633000
0.454000,0.454000,0.454000,0.454000,0.454000,0.454000,0.454000,0.454000,0.454000,0.454000,0.454000,0.454000,0.454000,0.454000,0.454000,0.453000,0.453000,0.453000,0.454000,0.454000,0.454000,0.454000,0.454000,0.454000,0.454000,0.453000,0.453000,0.453000,0.453000,0.453000,0.454000,0.454000,0.454000,0.454000,0.454000,0.455000,0.455000,0.455000,0.456000,0.456000,0.457000,0.459000,0.459000,0.460000,0.462000,0.462000,0.464000,0.466000,0.466000,0.468000,0.470000,0.470000,0.472000,0.473000,0.473000,0.475000,0.477000,0.477000,0.644000,0.645000,0.645000,0.645000,0.645000,0.645000,0.645000,0.645000,0.645000,0.645000,0.645000,0.646000,0.646000,0.646000,0.646000,0.646000,0.646000,0.646000,0.646000,0.646000,0.646000,0.646000,0.646000,0.646000,0.646000,0.646000,0.646000,0.646000,0.646000,0.646000,0.646000,0.646000,0.647000,0.647000,0.647000,0.647000,0.647000,0.647000,0.647000,0.647000,0.647000,0.647000,0.646000,0.646000,0.646000,0.646000,0.646000,0.646000,0.645000,0.645000,0.645000,0.645000,0.645000,0.645000,0.645000,0.645000,0.645000,0.645000,0.645000,0.645000,0.645000,0.645000,0.645000,0.645000,0.645000,0.645000,0.645000,0.645000,0.645000,0.645000,0.645000,0.645000,0.644000,0.644000,0.644000,0.644000,0.644000,0.644000,0.644000,0.645000,0.645000,0.645000,0.645000,0.645000,0.646000,0.646000,0.647000,0.647000,0.647000,0.649000,0.649000,0.649000,0.651000,0.651000,0.651000,0.651000,0.650000,0.649000,0.649000,0.649000,0.649000,0.647000,0.646000,0.646000,0.645000,0.644000,0.644000,0.644000,0.000000,0.645000,0.645000,0.646000,0.646000,0.647000,0.647000,0.647000,0.647000,0.645000,0.644000,0.644000,0.643000,0.643000,0.643000,0.643000,0.643000,0.642000,0.641000,0.641000,0.641000,0.642000,0.642000,0.642000,0.643000,0.643000,0.643000,0.643000,0.643000,0.643000,0.643000,0.643000,0.643000,0.643000,0.644000,0.644000,0.643000,0.643000,0.644000,0.644000,0.645000,0.645000,0.645000,0.645000,0.645000,0.645000,0.646000,0.646000,0.646000,0.647000,0.646000,0.646000,0.646000,0.647000,0.647000,0.647000,0.647000,0.647000,0.647000,0.647000,0.647000,0.647000,0.647000,0.646000,0.645000,0.645000,0.645000,0.645000,0.644000,0.643000,0.643000,0.643000,0.643000,0.643000,0.643000,0.643000,0.643000,0.643000,0.643000,0.643000,0.643000,0.643000,0.643000,0.643000,0.643000,0.643000,0.644000,0.644000,0.644000,0.645000,0.645000,0.645000,0.645000,0.645000,0.645000,0.643000,0.643000,0.643000,0.642000,0.642000,0.641000,0.641000,0.641000,0.641000,0.641000,0.641000,0.641000,0.641000,0.641000,0.640000,0.640000,0.640000,0.640000,0.640000,0.640000,0.641000,0.641000,0.640000,0.640000,0.640000,0.640000,0.640000,0.640000,0.640000,0.640000,0.641000,0.641000,0.641000,0.641000,0.641000,0.641000,0.641000,0.641000,0.641000,0.641000,0.641000,0.642000,0.643000,0.642000,0.642000,0.643000,0.643000,0.643000,0.643000,0.643000,0.643000,0.643000,0.645000,0.645000,0.645000,0.646000,0.646000,0.646000,0.647000,0.647000,0.647000,0.648000,0.648000,1.616000,1.620000,1.620000,1.624000,1.629000,1.629000,1.633000
0.454000,0.454000,0.454000,0.454000,0.454000,0.454000,0.454000,0.454000,0.454000,0.454000,0.454000,0.454000,0.454000,0.454000,0.454000,0.453000,0.453000,0.453000,0.454000,0.454000,0.454000,0.454000,0.454000,0.454000,0.454000,0.453000,0.453000,0.453000,0.453000,0.453000,0.454000,0.454000,0.454000,0.456000,0.456000,0.456000,0.456000,0.457000,0.458000,0.458000,0.459000,0.460000,0.460000,0.462000,0.464000,0.464000,0.466000,0.468000,0.468000,0.470000,0.472000,0.472000,0.474000,0.475000,0.475000,0.476000,0.477000,0.477000,0.644000,0.645000,0.645000,0.645000,0.645000,0.645000,0.645000,0.645000,0.645000,0.645000,0.645000,0.646000,0.646000,0.646000,0.646000,0.645000,0.645000,0.645000,0.645000,0.645000,0.645000,0.645000,0.645000,0.645000,0.645000,0.645000,0.645000,0.645000,0.645000,0.645000,0.645000,0.645000,0.645000,0.645000,0.645000,0.646000,0.646000,0.646000,0.646000,0.646000,0.645000,0.645000,0.645000,0.645000,0.645000,0.645000,0.645000,0.645000,0.644000,0.644000,0.643000,0.643000,0.643000,0.643000,0.643000,0.643000,0.643000,0.643000,0.643000,0.644000,0.644000,0.644000,0.644000,0.644000,0.644000,0.644000,0.644000,0.644000,0.644000,0.644000,0.643000,0.643000,0.643000,0.643000,0.643000,0.643000,0.643000,0.643000,0.643000,0.644000,0.644000,0.644000,0.644000,0.644000,0.645000,0.645000,0.646000,0.647000,0.647000,0.649000,0.649000,0.649000,0.651000,0.651000,0.651000,0.651000,0.650000,0.649000,0.649000,0.649000,0.649000,0.647000,0.646000,0.646000,0.645000,0.644000,0.644000,0.644000,0.000000,0.645000,0.645000,0.646000,0.646000,0.647000,0.647000,0.647000,0.647000,0.645000,0.644000,0.644000,0.643000,0.643000,0.643000,0.643000,0.643000,0.643000,0.642000,0.642000,0.642000,0.642000,0.642000,0.642000,0.643000,0.643000,0.643000,0.643000,0.643000,0.643000,0.643000,0.643000,0.643000,0.643000,0.643000,0.643000,0.643000,0.643000,0.643000,0.643000,0.644000,0.644000,0.644000,0.644000,0.644000,0.645000,0.645000,0.645000,0.645000,0.645000,0.645000,0.646000,0.646000,0.646000,0.646000,0.646000,0.647000,0.647000,0.646000,0.646000,0.646000,0.645000,0.645000,0.645000,0.645000,0.645000,0.644000,0.644000,0.643000,0.643000,0.643000,0.642000,0.642000,0.642000,0.642000,0.642000,0.641000,0.641000,0.641000,0.641000,0.641000,0.641000,0.641000,0.642000,0.642000,0.642000,0.643000,0.643000,0.643000,0.643000,0.643000,0.643000,0.643000,0.643000,0.643000,0.643000,0.643000,0.643000,0.642000,0.642000,0.641000,0.641000,0.641000,0.641000,0.641000,0.641000,0.641000,0.641000,0.641000,0.640000,0.640000,0.640000,0.640000,0.640000,0.640000,0.641000,0.641000,0.640000,0.640000,0.640000,0.640000,0.640000,0.640000,0.640000,0.640000,0.641000,0.641000,0.641000,0.641000,0.641000,0.641000,0.641000,0.641000,0.641000,0.641000,0.641000,0.642000,0.643000,0.642000,0.641000,0.641000,0.641000,0.642000,0.642000,0.643000,0.643000,0.643000,0.644000,0.644000,0.644000,0.645000,0.645000,0.645000,0.646000,0.646000,0.646000,0.647000,0.647000,1.616000,1.620000,1.620000,1.624000,1.629000,1.629000,1.633000
0.455000,0.455000,0.455000,0.455000,0.455000,0.455000,0.455000,0.455000,0.455000,0.455000,0.455000,0.456000,0.456000,0.455000,0.455000,0.455000,0.455000,0.455000,0.455000,0.455000,0.455000,0.455000,0.455000,0.455000,0.455000,0.455000,0.455000,0.455000,0.455000,0.455000,0.456000,0.456000,0.456000,0.456000,0.456000,0.456000,0.456000,0.457000,0.458000,0.458000,0.459000,0.460000,0.460000,0.462000,0.464000,0.464000,0.466000,0.468000,0.468000,0.470000,0.472000,0.472000,0.474000,0.475000,0.475000,0.476000,0.477000,0.477000,0.480000,0.644000,0.644000,0.644000,0.644000,0.644000,0.645000,0.645000,0.644000,0.644000,0.644000,0.645000,0.645000,0.645000,0.645000,0.645000,0.645000,0.645000,0.645000,0.645000,0.645000,0.645000,0.645000,0.645000,0.645000,0.645000,0.645000,0.645000,0.645000,0.645000,0.645000,0.645000,0.645000,0.645000,0.645000,0.646000,0.646000,0.646000,0.646000,0.646000,0.645000,0.645000,0.645000,0.645000,0.645000,0.645000,0.645000,0.645000,0.644000,0.644000,0.643000,0.643000,0.643000,0.643000,0.643000,0.643000,0.643000,0.643000,0.643000,0.643000,0.643000,0.643000,0.643000,0.643000,0.643000,0.643000,0.643000,0.643000,0.643000,0.643000,0.643000,0.643000,0.643000,0.643000,0.643000,0.643000,0.643000,0.643000,0.643000,0.643000,0.643000,0.643000,0.643000,0.644000,0.644000,0.644000,0.645000,0.647000,0.647000,0.647000,0.649000,0.649000,0.649000,0.649000,0.650000,0.650000,0.649000,0.649000,0.649000,0.647000,0.647000,0.647000,0.645000,0.645000,0.644000,0.644000,0.644000,0.643000,0.643000,0.643000,0.645000,0.645000,0.645000,0.646000,0.646000,0.646000,0.647000,0.645000,0.644000,0.644000,0.643000,0.643000,0.643000,0.643000,0.643000,0.642000,0.642000,0.642000,0.642000,0.642000,0.642000,0.642000,0.643000,0.643000,0.643000,0.643000,0.643000,0.643000,0.643000,0.643000,0.643000,0.643000,0.643000,0.643000,0.643000,0.643000,0.643000,0.643000,0.644000,0.644000,0.644000,0.644000,0.644000,0.645000,0.645000,0.645000,0.645000,0.645000,0.645000,0.646000,0.646000,0.646000,0.646000,0.646000,0.647000,0.647000,0.646000,0.646000,0.646000,0.645000,0.645000,0.645000,0.645000,0.645000,0.643000,0.643000,0.643000,0.642000,0.642000,0.642000,0.641000,0.641000,0.641000,0.641000,0.641000,0.641000,0.641000,0.641000,0.641000,0.641000,0.641000,0.641000,0.641000,0.641000,0.641000,0.641000,0.641000,0.641000,0.641000,0.641000,0.641000,0.641000,0.641000,0.641000,0.641000,0.641000,0.641000,0.641000,0.640000,0.640000,0.640000,0.639000,0.639000,0.639000,0.639000,0.639000,0.639000,0.639000,0.639000,0.639000,0.639000,0.639000,0.639000,0.639000,0.639000,0.639000,0.639000,0.639000,0.639000,0.639000,0.639000,0.639000,0.639000,0.640000,0.640000,0.640000,0.641000,0.641000,0.641000,0.641000,0.641000,0.641000,0.641000,0.641000,0.641000,0.641000,0.641000,0.641000,0.641000,0.641000,0.642000,0.642000,0.643000,0.643000,0.643000,0.644000,0.644000,0.644000,0.645000,0.645000,0.645000,0.646000,0.646000,0.646000,0.647000,0.647000,1.616000,1.620000,1.620000,1.624000,1.629000,1.629000,1.633000
0.455000,0.455000,0.455000,0.457000,0.457000,0.457000,0.457000,0.457000,0.457000,0.457000,0.457000,0.457000,0.457000,0.457000,0.457000,0.457000,0.457000,0.457000,0.457000,0.457000,0.457000,0.457000,0.457000,0.457000,0.458000,0.458000,0.457000,0.457000,0.457000,0.457000,0.457000,0.457000,0.458000,0.458000,0.458000,0.458000,0.458000,0.459000,0.459000,0.459000,0.461000,0.462000,0.462000,0.464000,0.466000,0.466000,0.467000,0.470000,0.470000,0.471000,0.474000,0.474000,0.475000,0.476000,0.476000,0.478000,0.479000,0.479000,0.480000,0.643000,0.643000,0.643000,0.643000,0.643000,0.643000,0.643000,0.643000,0.643000,0.643000,0.643000,0.643000,0.644000,0.644000,0.644000,0.644000,0.644000,0.644000,0.644000,0.644000,0.645000,0.645000,0.645000,0.645000,0.645000,0.645000,0.645000,0.645000,0.645000,0.645000,0.645000,0.645000,0.645000,0.645000,0.645000,0.645000,0.645000,0.645000,0.645000,0.645000,0.645000,0.644000,0.644000,0.644000,0.643000,0.643000,0.643000,0.643000,0.643000,0.643000,0.642000,0.642000,0.642000,0.642000,0.642000,0.642000,0.642000,0.642000,0.643000,0.643000,0.643000,0.643000,0.643000,0.643000,0.643000,0.643000,0.643000,0.643000,0.643000,0.643000,0.643000,0.643000,0.643000,0.643000,0.643000,0.643000,0.643000,0.643000,0.643000,0.643000,0.643000,0.643000,0.644000,0.644000,0.644000,0.645000,0.647000,0.647000,0.647000,0.649000,0.649000,0.649000,0.649000,0.650000,0.650000,0.649000,0.649000,0.649000,0.647000,0.647000,0.646000,0.645000,0.645000,0.643000,0.643000,0.643000,0.643000,0.643000,0.643000,0.645000,0.645000,0.645000,0.646000,0.646000,0.646000,0.646000,0.645000,0.645000,0.645000,0.644000,0.643000,0.643000,0.643000,0.643000,0.642000,0.642000,0.642000,0.642000,0.642000,0.642000,0.642000,0.642000,0.642000,0.642000,0.642000,0.642000,0.642000,0.642000,0.642000,0.642000,0.642000,0.643000,0.643000,0.643000,0.643000,0.643000,0.643000,0.643000,0.643000,0.643000,0.644000,0.644000,0.644000,0.645000,0.645000,0.645000,0.645000,0.645000,0.645000,0.645000,0.645000,0.645000,0.645000,0.645000,0.645000,0.645000,0.645000,0.645000,0.645000,0.645000,0.644000,0.643000,0.643000,0.643000,0.643000,0.643000,0.642000,0.642000,0.642000,0.641000,0.641000,0.641000,0.641000,0.641000,0.641000,0.641000,0.641000,0.641000,0.641000,0.641000,0.641000,0.641000,0.641000,0.641000,0.641000,0.641000,0.641000,0.641000,0.641000,0.641000,0.641000,0.641000,0.641000,0.641000,0.641000,0.641000,0.641000,0.640000,0.640000,0.640000,0.639000,0.639000,0.639000,0.639000,0.639000,0.639000,0.638000,0.638000,0.638000,0.638000,0.638000,0.638000,0.638000,0.638000,0.639000,0.639000,0.639000,0.639000,0.639000,0.639000,0.639000,0.639000,0.639000,0.640000,0.640000,0.640000,0.640000,0.640000,0.640000,0.640000,0.640000,0.640000,0.640000,0.641000,0.641000,0.641000,0.641000,0.641000,0.641000,0.641000,0.641000,0.641000,0.642000,0.642000,0.643000,0.643000,0.643000,0.644000,0.644000,0.645000,0.645000,0.645000,0.645000,0.645000,0.645000,0.647000,0.647000,1.620000,1.624000,1.629000,1.629000,1.633000
0.456000,0.456000,0.457000,0.457000,0.457000,0.457000,0.457000,0.457000,0.457000,0.457000,0.457000,0.457000,0.457000,0.457000,0.457000,0.457000,0.457000,0.457000,0.457000,0.457000,0.457000,0.457000,0.457000,0.457000,0.458000,0.458000,0.457000,0.457000,0.457000,0.457000,0.457000,0.457000,0.458000,0.458000,0.458000,0.458000,0.458000,0.459000,0.459000,0.459000,0.461000,0.462000,0.462000,0.464000,0.466000,0.466000,0.469000,0.471000,0.471000,0.473000,0.475000,0.475000,0.477000,0.478000,0.478000,0.479000,0.480000,0.480000,0.481000,0.643000,0.643000,0.643000,0.643000,0.643000,0.643000,0.643000,0.643000,0.643000,0.643000,0.643000,0.643000,0.644000,0.644000,0.644000,0.644000,0.644000,0.644000,0.644000,0.644000,0.645000,0.645000,0.645000,0.645000,0.645000,0.645000,0.644000,0.644000,0.644000,0.644000,0.644000,0.644000,0.644000,0.644000,0.644000,0.644000,0.644000,0.644000,0.644000,0.643000,0.643000,0.643000,0.643000,0.643000,0.642000,0.642000,0.642000,0.641000,0.641000,0.641000,0.641000,0.641000,0.641000,0.641000,0.641000,0.641000,0.641000,0.641000,0.641000,0.641000,0.641000,0.641000,0.641000,0.642000,0.642000,0.642000,0.642000,0.642000,0.642000,0.642000,0.642000,0.642000,0.642000,0.642000,0.642000,0.642000,0.642000,0.642000,0.642000,0.642000,0.643000,0.643000,0.643000,0.643000,0.643000,0.643000,0.645000,0.645000,0.646000,0.646000,0.647000,0.649000,0.649000,0.649000,0.649000,0.648000,0.648000,0.648000,0.647000,0.647000,0.646000,0.645000,0.645000,0.643000,0.643000,0.643000,0.643000,0.643000,0.643000,0.645000,0.645000,0.645000,0.646000,0.646000,0.646000,0.646000,0.645000,0.645000,0.645000,0.644000,0.643000,0.643000,0.643000,0.643000,0.643000,0.642000,0.642000,0.642000,0.642000,0.642000,0.642000,0.642000,0.642000,0.642000,0.642000,0.642000,0.642000,0.642000,0.642000,0.642000,0.642000,0.643000,0.643000,0.642000,0.642000,0.642000,0.642000,0.643000,0.642000,0.642000,0.643000,0.643000,0.643000,0.643000,0.643000,0.643000,0.643000,0.643000,0.643000,0.643000,0.643000,0.643000,0.643000,0.643000,0.643000,0.643000,0.643000,0.643000,0.643000,0.643000,0.643000,0.643000,0.643000,0.642000,0.642000,0.642000,0.641000,0.641000,0.641000,0.641000,0.641000,0.641000,0.641000,0.640000,0.640000,0.640000,0.639000,0.639000,0.639000,0.639000,0.639000,0.639000,0.640000,0.640000,0.640000,0.640000,0.640000,0.640000,0.640000,0.640000,0.640000,0.640000,0.640000,0.639000,0.639000,0.639000,0.639000,0.639000,0.639000,0.639000,0.639000,0.639000,0.639000,0.638000,0.638000,0.638000,0.638000,0.638000,0.638000,0.638000,0.638000,0.638000,0.638000,0.638000,0.639000,0.639000,0.639000,0.639000,0.639000,0.639000,0.639000,0.639000,0.639000,0.640000,0.640000,0.640000,0.640000,0.640000,0.640000,0.640000,0.640000,0.640000,0.640000,0.641000,0.641000,0.641000,0.641000,0.641000,0.641000,0.641000,0.641000,0.641000,0.642000,0.642000,0.643000,0.643000,0.643000,0.644000,0.644000,0.644000,0.644000,0.644000,0.644000,0.645000,0.645000,0.645000,0.645000,1.620000,1.624000,1.629000,1.629000,1.633000
0.458000,0.458000,0.458000,0.458000,0.458000,0.458000,0.458000,0.458000,0.458000,0.458000,0.458000,0.459000,0.459000,0.459000,0.459000,0.459000,0.459000,0.459000,0.459000,0.459000,0.459000,0.459000,0.459000,0.459000,0.459000,0.459000,0.459000,0.459000,0.459000,0.459000,0.459000,0.459000,0.459000,0.459000,0.459000,0.460000,0.460000,0.460000,0.461000,0.461000,0.463000,0.464000,0.464000,0.466000,0.467000,0.467000,0.469000,0.471000,0.471000,0.473000,0.475000,0.475000,0.477000,0.478000,0.478000,0.479000,0.480000,0.480000,0.481000,0.642000,0.642000,0.642000,0.642000,0.642000,0.642000,0.642000,0.643000,0.643000,0.643000,0.643000,0.643000,0.643000,0.643000,0.643000,0.643000,0.643000,0.643000,0.643000,0.643000,0.644000,0.644000,0.644000,0.644000,0.644000,0.644000,0.644000,0.644000,0.644000,0.644000,0.644000,0.644000,0.644000,0.644000,0.644000,0.644000,0.644000,0.644000,0.644000,0.643000,0.643000,0.643000,0.643000,0.643000,0.642000,0.642000,0.642000,0.641000,0.641000,0.641000,0.641000,0.641000,0.641000,0.641000,0.641000,0.641000,0.641000,0.641000,0.641000,0.641000,0.641000,0.641000,0.641000,0.642000,0.642000,0.642000,0.642000,0.642000,0.642000,0.642000,0.641000,0.641000,0.641000,0.641000,0.641000,0.641000,0.641000,0.641000,0.642000,0.642000,0.642000,0.642000,0.642000,0.642000,0.642000,0.643000,0.644000,0.644000,0.645000,0.645000,0.646000,0.647000,0.647000,0.647000,0.647000,0.647000,0.647000,0.647000,0.647000,0.647000,0.645000,0.645000,0.645000,0.643000,0.643000,0.643000,0.643000,0.643000,0.643000,0.644000,0.645000,0.645000,0.645000,0.645000,0.645000,0.645000,0.645000,0.644000,0.644000,0.644000,0.643000,0.643000,0.643000,0.643000,0.642000,0.642000,0.642000,0.642000,0.642000,0.642000,0.641000,0.641000,0.641000,0.641000,0.641000,0.641000,0.641000,0.641000,0.641000,0.641000,0.641000,0.641000,0.642000,0.642000,0.642000,0.642000,0.642000,0.643000,0.642000,0.642000,0.643000,0.643000,0.643000,0.643000,0.643000,0.643000,0.643000,0.643000,0.643000,0.643000,0.643000,0.643000,0.643000,0.643000,0.643000,0.643000,0.643000,0.643000,0.643000,0.643000,0.643000,0.643000,0.643000,0.642000,0.642000,0.642000,0.641000,0.641000,0.641000,0.641000,0.641000,0.641000,0.641000,0.640000,0.640000,0.640000,0.639000,0.639000,0.639000,0.639000,0.639000,0.639000,0.639000,0.639000,0.639000,0.639000,0.639000,0.639000,0.639000,0.639000,0.639000,0.639000,0.639000,0.639000,0.639000,0.639000,0.639000,0.638000,0.638000,0.638000,0.637000,0.637000,0.637000,0.637000,0.637000,0.637000,0.637000,0.637000,0.637000,0.637000,0.637000,0.637000,0.638000,0.638000,0.638000,0.638000,0.638000,0.638000,0.638000,0.638000,0.639000,0.639000,0.639000,0.639000,0.639000,0.639000,0.639000,0.639000,0.639000,0.639000,0.639000,0.640000,0.640000,0.640000,0.640000,0.640000,0.640000,0.640000,0.640000,0.640000,0.640000,0.641000,0.641000,0.641000,0.641000,0.641000,0.641000,0.643000,0.643000,0.643000,0.644000,0.644000,0.644000,0.645000,0.645000,0.645000,0.645000,1.624000,1.629000,1.629000,1.629000,1.633000
0.458000,0.458000,0.458000,0.458000,0.458000,0.458000,0.458000,0.458000,0.458000,0.458000,0.458000,0.459000,0.459000,0.459000,0.459000,0.459000,0.460000,0.460000,0.460000,0.460000,0.460000,0.460000,0.460000,0.460000,0.460000,0.460000,0.460000,0.460000,0.460000,0.460000,0.460000,0.460000,0.460000,0.461000,0.461000,0.461000,0.462000,0.462000,0.463000,0.463000,0.464000,0.466000,0.466000,0.467000,0.469000,0.469000,0.471000,0.473000,0.473000,0.474000,0.476000,0.476000,0.478000,0.479000,0.479000,0.481000,0.481000,0.481000,0.482000,0.641000,0.641000,0.642000,0.642000,0.642000,0.642000,0.642000,0.642000,0.642000,0.642000,0.642000,0.642000,0.642000,0.642000,0.642000,0.643000,0.643000,0.643000,0.643000,0.643000,0.643000,0.643000,0.643000,0.643000,0.643000,0.643000,0.643000,0.643000,0.643000,0.643000,0.643000,0.643000,0.643000,0.643000,0.643000,0.643000,0.643000,0.643000,0.643000,0.642000,0.642000,0.642000,0.641000,0.641000,0.641000,0.641000,0.641000,0.641000,0.641000,0.640000,0.640000,0.640000,0.640000,0.640000,0.640000,0.640000,0.640000,0.640000,0.640000,0.640000,0.640000,0.641000,0.641000,0.641000,0.641000,0.641000,0.641000,0.641000,0.641000,0.641000,0.641000,0.641000,0.641000,0.641000,0.641000,0.641000,0.641000,0.641000,0.642000,0.642000,0.642000,0.642000,0.642000,0.642000,0.642000,0.643000,0.644000,0.644000,0.645000,0.645000,0.646000,0.647000,0.647000,0.647000,0.647000,0.647000,0.647000,0.647000,0.647000,0.647000,0.645000,0.645000,0.645000,0.643000,0.643000,0.643000,0.643000,0.643000,0.643000,0.644000,0.645000,0.645000,0.645000,0.645000,0.645000,0.645000,0.645000,0.644000,0.644000,0.644000,0.643000,0.643000,0.643000,0.643000,0.642000,0.642000,0.642000,0.641000,0.641000,0.641000,0.641000,0.641000,0.641000,0.641000,0.641000,0.641000,0.641000,0.641000,0.641000,0.641000,0.641000,0.641000,0.641000,0.641000,0.641000,0.641000,0.641000,0.641000,0.641000,0.641000,0.641000,0.641000,0.642000,0.643000,0.643000,0.643000,0.643000,0.643000,0.643000,0.643000,0.643000,0.643000,0.642000,0.642000,0.642000,0.642000,0.642000,0.642000,0.642000,0.642000,0.642000,0.641000,0.641000,0.641000,0.641000,0.641000,0.641000,0.641000,0.641000,0.640000,0.640000,0.640000,0.640000,0.639000,0.639000,0.639000,0.639000,0.639000,0.639000,0.639000,0.639000,0.639000,0.639000,0.639000,0.639000,0.639000,0.639000,0.639000,0.639000,0.639000,0.639000,0.639000,0.639000,0.639000,0.639000,0.639000,0.639000,0.638000,0.638000,0.638000,0.637000,0.637000,0.637000,0.637000,0.637000,0.637000,0.637000,0.637000,0.637000,0.637000,0.637000,0.637000,0.638000,0.638000,0.638000,0.638000,0.638000,0.638000,0.638000,0.638000,0.638000,0.638000,0.639000,0.639000,0.639000,0.639000,0.639000,0.639000,0.639000,0.639000,0.639000,0.639000,0.639000,0.639000,0.639000,0.639000,0.639000,0.639000,0.639000,0.639000,0.639000,0.640000,0.640000,0.640000,0.641000,0.641000,0.641000,0.642000,0.642000,0.642000,0.643000,0.643000,0.643000,0.643000,0.643000,0.644000,0.644000,1.624000,1.629000,1.629000,1.629000,1.633000
0.460000,0.460000,0.460000,0.460000,0.460000,0.460000,0.460000,0.459000,0.459000,0.459000,0.459000,0.460000,0.460000,0.460000,0.460000,0.460000,0.460000,0.460000,0.460000,0.460000,0.460000,0.460000,0.460000,0.460000,0.460000,0.460000,0.460000,0.460000,0.460000,0.460000,0.460000,0.460000,0.460000,0.461000,0.461000,0.461000,0.462000,0.462000,0.463000,0.463000,0.464000,0.466000,0.466000,0.467000,0.469000,0.469000,0.471000,0.473000,0.473000,0.474000,0.476000,0.476000,0.478000,0.479000,0.479000,0.481000,0.481000,0.481000,0.484000,0.641000,0.641000,0.642000,0.642000,0.642000,0.642000,0.642000,0.642000,0.642000,0.642000,0.642000,0.642000,0.642000,0.642000,0.642000,0.643000,0.643000,0.643000,0.643000,0.643000,0.643000,0.643000,0.643000,0.643000,0.643000,0.643000,0.643000,0.643000,0.643000,0.643000,0.643000,0.643000,0.643000,0.643000,0.643000,0.643000,0.643000,0.643000,0.643000,0.641000,0.641000,0.641000,0.641000,0.641000,0.640000,0.640000,0.640000,0.639000,0.639000,0.639000,0.639000,0.639000,0.639000,0.639000,0.639000,0.639000,0.639000,0.639000,0.639000,0.639000,0.639000,0.640000,0.640000,0.640000,0.640000,0.640000,0.640000,0.640000,0.640000,0.641000,0.641000,0.641000,0.641000,0.641000,0.641000,0.641000,0.641000,0.641000,0.641000,0.641000,0.641000,0.641000,0.641000,0.641000,0.641000,0.642000,0.643000,0.643000,0.644000,0.644000,0.645000,0.646000,0.646000,0.646000,0.646000,0.646000,0.646000,0.646000,0.645000,0.645000,0.644000,0.644000,0.644000,0.643000,0.643000,0.643000,0.643000,0.643000,0.643000,0.643000,0.644000,0.644000,0.645000,0.645000,0.645000,0.645000,0.645000,0.645000,0.645000,0.644000,0.643000,0.643000,0.643000,0.643000,0.642000,0.642000,0.642000,0.641000,0.641000,0.641000,0.641000,0.641000,0.641000,0.641000,0.641000,0.641000,0.641000,0.641000,0.641000,0.641000,0.641000,0.641000,0.641000,0.641000,0.641000,0.641000,0.641000,0.641000,0.641000,0.641000,0.641000,0.641000,0.642000,0.643000,0.643000,0.643000,0.641000,0.641000,0.641000,0.641000,0.641000,0.641000,0.641000,0.641000,0.641000,0.641000,0.641000,0.641000,0.641000,0.641000,0.641000,0.641000,0.641000,0.641000,0.641000,0.641000,0.641000,0.641000,0.640000,0.640000,0.639000,0.639000,0.639000,0.639000,0.639000,0.639000,0.638000,0.638000,0.638000,0.638000,0.638000,0.638000,0.638000,0.638000,0.638000,0.638000,0.638000,0.638000,0.638000,0.638000,0.638000,0.638000,0.638000,0.638000,0.638000,0.638000,0.638000,0.637000,0.637000,0.637000,0.637000,0.637000,0.637000,0.637000,0.637000,0.637000,0.637000,0.637000,0.637000,0.637000,0.637000,0.637000,0.637000,0.637000,0.637000,0.637000,0.637000,0.637000,0.638000,0.638000,0.638000,0.638000,0.639000,0.639000,0.639000,0.639000,0.639000,0.639000,0.639000,0.639000,0.639000,0.639000,0.639000,0.639000,0.639000,0.639000,0.639000,0.639000,0.639000,0.639000,0.639000,0.640000,0.640000,0.640000,0.641000,0.641000,0.641000,0.642000,0.642000,0.642000,0.643000,0.643000,0.643000,0.643000,0.643000,0.644000,0.644000,1.624000,1.629000,1.629000,1.629000,1.633000
0.461000,0.461000,0.461000,0.461000,0.461000,0.461000,0.461000,0.461000,0.461000,0.461000,0.461000,0.461000,0.461000,0.461000,0.461000,0.461000,0.461000,0.461000,0.461000,0.461000,0.461000,0.461000,0.462000,0.462000,0.461000,0.461000,0.461000,0.461000,0.461000,0.461000,0.461000,0.461000,0.462000,0.462000,0.462000,0.463000,0.464000,0.464000,0.465000,0.466000,0.466000,0.468000,0.468000,0.469000,0.471000,0.471000,0.472000,0.474000,0.474000,0.476000,0.478000,0.478000,0.479000,0.481000,0.481000,0.482000,0.482000,0.482000,0.484000,0.641000,0.641000,0.641000,0.641000,0.641000,0.641000,0.641000,0.641000,0.641000,0.641000,0.641000,0.641000,0.642000,0.642000,0.642000,0.642000,0.642000,0.642000,0.643000,0.642000,0.642000,0.642000,0.642000,0.643000,0.643000,0.643000,0.643000,0.643000,0.643000,0.643000,0.643000,0.643000,0.643000,0.643000,0.643000,0.642000,0.642000,0.642000,0.641000,0.641000,0.641000,0.641000,0.641000,0.641000,0.640000,0.640000,0.640000,0.639000,0.639000,0.639000,0.639000,0.639000,0.639000,0.639000,0.639000,0.639000,0.639000,0.639000,0.639000,0.639000,0.639000,0.640000,0.640000,0.640000,0.640000,0.640000,0.640000,0.640000,0.640000,0.641000,0.641000,0.641000,0.641000,0.641000,0.641000,0.641000,0.641000,0.641000,0.641000,0.641000,0.641000,0.641000,0.641000,0.641000,0.641000,0.641000,0.643000,0.643000,0.643000,0.643000,0.644000,0.645000,0.645000,0.645000,0.645000,0.645000,0.645000,0.645000,0.645000,0.645000,0.644000,0.643000,0.643000,0.643000,0.643000,0.643000,0.643000,0.643000,0.643000,0.643000,0.644000,0.644000,0.644000,0.644000,0.644000,0.644000,0.644000,0.643000,0.643000,0.643000,0.643000,0.643000,0.643000,0.643000,0.642000,0.641000,0.641000,0.641000,0.641000,0.641000,0.641000,0.641000,0.641000,0.641000,0.641000,0.640000,0.640000,0.640000,0.640000,0.640000,0.640000,0.640000,0.641000,0.641000,0.641000,0.641000,0.641000,0.641000,0.641000,0.641000,0.641000,0.641000,0.641000,0.641000,0.641000,0.641000,0.641000,0.641000,0.641000,0.641000,0.641000,0.641000,0.641000,0.641000,0.641000,0.641000,0.641000,0.641000,0.641000,0.641000,0.641000,0.641000,0.641000,0.641000,0.641000,0.641000,0.641000,0.641000,0.640000,0.640000,0.639000,0.639000,0.639000,0.639000,0.639000,0.639000,0.638000,0.638000,0.638000,0.638000,0.638000,0.638000,0.638000,0.638000,0.638000,0.638000,0.638000,0.638000,0.638000,0.638000,0.637000,0.637000,0.637000,0.637000,0.637000,0.637000,0.637000,0.637000,0.636000,0.636000,0.636000,0.636000,0.636000,0.636000,0.636000,0.636000,0.636000,0.636000,0.636000,0.636000,0.636000,0.636000,0.636000,0.636000,0.637000,0.637000,0.637000,0.637000,0.637000,0.637000,0.638000,0.638000,0.638000,0.639000,0.639000,0.639000,0.639000,0.639000,0.639000,0.639000,0.639000,0.639000,0.639000,0.639000,0.639000,0.639000,0.639000,0.639000,0.639000,0.639000,0.639000,0.639000,0.639000,0.639000,0.640000,0.640000,0.640000,0.641000,0.641000,0.641000,0.642000,0.642000,0.642000,0.642000,0.643000,0.643000,0.643000,1.624000,1.629000,1.629000,1.629000,1.633000
0.461000,0.461000,0.461000,0.461000,0.461000,0.461000,0.461000,0.461000,0.461000,0.461000,0.461000,0.461000,0.461000,0.461000,0.461000,0.461000,0.461000,0.461000,0.461000,0.461000,0.461000,0.461000,0.462000,0.462000,0.461000,0.461000,0.461000,0.461000,0.461000,0.463000,0.463000,0.463000,0.464000,0.464000,0.464000,0.465000,0.465000,0.465000,0.466000,0.468000,0.468000,0.469000,0.471000,0.471000,0.472000,0.472000,0.474000,0.476000,0.476000,0.477000,0.479000,0.479000,0.481000,0.482000,0.482000,0.483000,0.484000,0.484000,0.485000,0.641000,0.641000,0.641000,0.641000,0.641000,0.641000,0.641000,0.641000,0.641000,0.641000,0.641000,0.641000,0.641000,0.641000,0.641000,0.641000,0.641000,0.641000,0.641000,0.641000,0.641000,0.641000,0.641000,0.642000,0.642000,0.642000,0.642000,0.642000,0.642000,0.642000,0.642000,0.641000,0.641000,0.641000,0.642000,0.641000,0.641000,0.641000,0.641000,0.641000,0.641000,0.641000,0.641000,0.640000,0.639000,0.639000,0.639000,0.639000,0.639000,0.639000,0.639000,0.638000,0.638000,0.638000,0.638000,0.639000,0.639000,0.639000,0.639000,0.639000,0.639000,0.639000,0.639000,0.639000,0.639000,0.639000,0.639000,0.639000,0.639000,0.640000,0.640000,0.640000,0.640000,0.640000,0.640000,0.640000,0.640000,0.640000,0.640000,0.641000,0.641000,0.641000,0.641000,0.641000,0.641000,0.641000,0.643000,0.643000,0.643000,0.643000,0.644000,0.645000,0.645000,0.645000,0.645000,0.645000,0.645000,0.645000,0.645000,0.645000,0.644000,0.643000,0.643000,0.643000,0.643000,0.643000,0.643000,0.643000,0.643000,0.643000,0.644000,0.644000,0.644000,0.644000,0.644000,0.644000,0.644000,0.643000,0.643000,0.643000,0.643000,0.643000,0.643000,0.643000,0.642000,0.641000,0.641000,0.641000,0.641000,0.640000,0.640000,0.640000,0.640000,0.640000,0.640000,0.640000,0.639000,0.639000,0.639000,0.639000,0.639000,0.639000,0.640000,0.640000,0.640000,0.640000,0.640000,0.640000,0.640000,0.640000,0.640000,0.640000,0.641000,0.641000,0.641000,0.641000,0.640000,0.640000,0.640000,0.640000,0.639000,0.639000,0.639000,0.639000,0.639000,0.639000,0.639000,0.639000,0.639000,0.640000,0.640000,0.640000,0.640000,0.639000,0.639000,0.639000,0.639000,0.639000,0.639000,0.639000,0.639000,0.639000,0.639000,0.638000,0.638000,0.638000,0.638000,0.638000,0.638000,0.638000,0.638000,0.638000,0.638000,0.638000,0.638000,0.638000,0.637000,0.637000,0.637000,0.637000,0.637000,0.637000,0.637000,0.637000,0.637000,0.637000,0.637000,0.637000,0.636000,0.636000,0.636000,0.636000,0.636000,0.636000,0.636000,0.636000,0.636000,0.636000,0.636000,0.636000,0.636000,0.636000,0.636000,0.636000,0.637000,0.637000,0.637000,0.637000,0.637000,0.637000,0.638000,0.638000,0.638000,0.639000,0.639000,0.639000,0.639000,0.639000,0.639000,0.639000,0.639000,0.639000,0.639000,0.639000,0.639000,0.639000,0.639000,0.639000,0.639000,0.639000,0.639000,0.639000,0.639000,0.639000,0.639000,0.639000,0.639000,0.639000,0.639000,0.640000,0.641000,0.641000,0.641000,0.641000,0.641000,0.642000,0.642000,1.624000,1.629000,1.629000,1.629000,1.633000
0.463000,0.463000,0.463000,0.463000,0.463000,0.463000,0.463000,0.463000,0.463000,0.463000,0.463000,0.463000,0.463000,0.463000,0.463000,0.463000,0.463000,0.463000,0.463000,0.463000,0.463000,0.463000,0.463000,0.463000,0.463000,0.463000,0.463000,0.463000,0.463000,0.463000,0.463000,0.463000,0.464000,0.464000,0.464000,0.465000,0.465000,0.465000,0.466000,0.468000,0.468000,0.469000,0.471000,0.471000,0.472000,0.472000,0.474000,0.476000,0.476000,0.477000,0.479000,0.479000,0.481000,0.482000,0.482000,0.483000,0.484000,0.484000,0.485000,0.486000,0.486000,0.641000,0.641000,0.641000,0.641000,0.641000,0.641000,0.641000,0.641000,0.641000,0.641000,0.641000,0.641000,0.641000,0.641000,0.641000,0.641000,0.641000,0.641000,0.641000,0.641000,0.641000,0.642000,0.642000,0.642000,0.642000,0.642000,0.642000,0.642000,0.642000,0.641000,0.641000,0.641000,0.642000,0.641000,0.641000,0.641000,0.641000,0.641000,0.641000,0.641000,0.641000,0.640000,0.639000,0.639000,0.639000,0.639000,0.639000,0.639000,0.639000,0.638000,0.638000,0.638000,0.638000,0.638000,0.638000,0.638000,0.638000,0.638000,0.638000,0.638000,0.638000,0.638000,0.639000,0.639000,0.639000,0.639000,0.639000,0.639000,0.639000,0.639000,0.639000,0.639000,0.639000,0.639000,0.639000,0.639000,0.639000,0.640000,0.640000,0.640000,0.641000,0.641000,0.641000,0.641000,0.641000,0.642000,0.642000,0.642000,0.643000,0.643000,0.643000,0.643000,0.643000,0.643000,0.644000,0.643000,0.643000,0.643000,0.643000,0.643000,0.643000,0.642000,0.642000,0.642000,0.642000,0.642000,0.642000,0.642000,0.643000,0.643000,0.643000,0.643000,0.643000,0.643000,0.643000,0.643000,0.643000,0.642000,0.642000,0.642000,0.642000,0.642000,0.641000,0.641000,0.641000,0.641000,0.641000,0.640000,0.640000,0.640000,0.640000,0.640000,0.640000,0.640000,0.639000,0.639000,0.639000,0.639000,0.639000,0.639000,0.640000,0.640000,0.640000,0.640000,0.640000,0.640000,0.640000,0.640000,0.640000,0.640000,0.641000,0.641000,0.641000,0.641000,0.640000,0.640000,0.640000,0.640000,0.639000,0.639000,0.639000,0.639000,0.639000,0.639000,0.639000,0.639000,0.639000,0.640000,0.639000,0.639000,0.639000,0.639000,0.639000,0.639000,0.639000,0.639000,0.639000,0.639000,0.639000,0.638000,0.638000,0.638000,0.638000,0.638000,0.637000,0.637000,0.637000,0.637000,0.637000,0.637000,0.637000,0.637000,0.637000,0.637000,0.637000,0.637000,0.637000,0.637000,0.636000,0.636000,0.636000,0.636000,0.636000,0.636000,0.636000,0.636000,0.635000,0.635000,0.635000,0.635000,0.635000,0.635000,0.635000,0.635000,0.635000,0.636000,0.636000,0.636000,0.636000,0.636000,0.636000,0.636000,0.636000,0.637000,0.637000,0.637000,0.637000,0.637000,0.637000,0.637000,0.638000,0.638000,0.638000,0.638000,0.639000,0.638000,0.638000,0.638000,0.639000,0.639000,0.639000,0.639000,0.639000,0.639000,0.639000,0.639000,0.639000,0.639000,0.639000,0.639000,0.639000,0.639000,0.639000,0.639000,0.639000,0.639000,0.639000,0.640000,0.641000,0.641000,0.641000,0.641000,0.641000,0.642000,0.642000,1.624000,1.629000,1.629000,1.629000,1.633000
0.465000,0.466000,0.466000,0.466000,0.466000,0.466000,0.466000,0.465000,0.465000,0.465000,0.465000,0.465000,0.465000,0.465000,0.465000,0.465000,0.465000,0.465000,0.465000,0.465000,0.465000,0.465000,0.465000,0.465000,0.465000,0.465000,0.465000,0.465000,0.465000,0.465000,0.465000,0.465000,0.465000,0.466000,0.466000,0.466000,0.467000,0.467000,0.468000,0.470000,0.470000,0.471000,0.472000,0.472000,0.474000,0.476000,0.476000,0.477000,0.477000,0.479000,0.480000,0.480000,0.481000,0.483000,0.483000,0.484000,0.484000,0.484000,0.485000,0.486000,0.486000,0.640000,0.640000,0.640000,0.641000,0.641000,0.641000,0.640000,0.640000,0.640000,0.640000,0.641000,0.641000,0.641000,0.641000,0.641000,0.641000,0.641000,0.641000,0.641000,0.641000,0.641000,0.641000,0.641000,0.641000,0.641000,0.641000,0.641000,0.641000,0.641000,0.641000,0.641000,0.641000,0.641000,0.641000,0.641000,0.641000,0.640000,0.640000,0.640000,0.639000,0.639000,0.639000,0.639000,0.639000,0.638000,0.638000,0.638000,0.638000,0.638000,0.638000,0.638000,0.638000,0.638000,0.638000,0.638000,0.638000,0.638000,0.638000,0.638000,0.638000,0.638000,0.638000,0.639000,0.639000,0.639000,0.639000,0.639000,0.639000,0.639000,0.639000,0.639000,0.639000,0.639000,0.639000,0.639000,0.639000,0.639000,0.640000,0.640000,0.640000,0.641000,0.641000,0.641000,0.641000,0.641000,0.642000,0.642000,0.642000,0.643000,0.643000,0.643000,0.643000,0.643000,0.643000,0.644000,0.642000,0.642000,0.642000,0.641000,0.641000,0.642000,0.641000,0.641000,0.641000,0.641000,0.641000,0.641000,0.641000,0.642000,0.642000,0.642000,0.642000,0.642000,0.642000,0.642000,0.642000,0.642000,0.641000,0.641000,0.641000,0.641000,0.641000,0.641000,0.639000,0.639000,0.639000,0.639000,0.639000,0.639000,0.639000,0.639000,0.639000,0.639000,0.639000,0.639000,0.639000,0.639000,0.639000,0.639000,0.639000,0.639000,0.639000,0.639000,0.639000,0.639000,0.639000,0.639000,0.639000,0.639000,0.639000,0.639000,0.639000,0.639000,0.639000,0.639000,0.639000,0.639000,0.639000,0.639000,0.639000,0.639000,0.639000,0.639000,0.639000,0.639000,0.639000,0.639000,0.639000,0.639000,0.639000,0.639000,0.639000,0.639000,0.639000,0.639000,0.639000,0.639000,0.639000,0.639000,0.638000,0.638000,0.638000,0.638000,0.638000,0.637000,0.637000,0.637000,0.637000,0.637000,0.637000,0.637000,0.637000,0.637000,0.637000,0.637000,0.637000,0.637000,0.637000,0.636000,0.636000,0.636000,0.636000,0.636000,0.636000,0.636000,0.636000,0.635000,0.635000,0.635000,0.635000,0.635000,0.635000,0.635000,0.635000,0.635000,0.635000,0.635000,0.635000,0.635000,0.635000,0.635000,0.635000,0.635000,0.636000,0.636000,0.636000,0.636000,0.637000,0.637000,0.637000,0.637000,0.637000,0.637000,0.638000,0.638000,0.638000,0.638000,0.638000,0.638000,0.639000,0.639000,0.639000,0.639000,0.638000,0.638000,0.638000,0.638000,0.638000,0.638000,0.638000,0.638000,0.638000,0.638000,0.638000,0.638000,0.639000,0.639000,0.639000,0.639000,0.639000,0.640000,0.640000,0.640000,0.640000,0.640000,0.641000,1.629000,1.629000,1.629000,1.633000
0.465000,0.466000,0.466000,0.466000,0.466000,0.466000,0.466000,0.465000,0.465000,0.465000,0.465000,0.465000,0.465000,0.465000,0.465000,0.465000,0.465000,0.465000,0.465000,0.465000,0.465000,0.465000,0.465000,0.465000,0.465000,0.465000,0.465000,0.465000,0.465000,0.465000,0.465000,0.465000,0.465000,0.466000,0.466000,0.466000,0.467000,0.467000,0.468000,0.470000,0.470000,0.471000,0.474000,0.474000,0.475000,0.476000,0.476000,0.478000,0.478000,0.479000,0.481000,0.481000,0.482000,0.483000,0.483000,0.484000,0.485000,0.485000,0.486000,0.487000,0.487000,0.640000,0.640000,0.640000,0.641000,0.641000,0.641000,0.640000,0.640000,0.640000,0.640000,0.641000,0.641000,0.641000,0.641000,0.641000,0.641000,0.641000,0.641000,0.641000,0.641000,0.641000,0.641000,0.641000,0.641000,0.641000,0.641000,0.640000,0.640000,0.640000,0.640000,0.641000,0.640000,0.640000,0.640000,0.639000,0.639000,0.639000,0.639000,0.639000,0.639000,0.639000,0.639000,0.638000,0.638000,0.637000,0.637000,0.637000,0.637000,0.637000,0.637000,0.637000,0.637000,0.637000,0.637000,0.637000,0.637000,0.637000,0.637000,0.637000,0.637000,0.637000,0.638000,0.638000,0.638000,0.638000,0.639000,0.639000,0.639000,0.639000,0.639000,0.639000,0.639000,0.639000,0.639000,0.639000,0.639000,0.639000,0.639000,0.640000,0.640000,0.640000,0.640000,0.640000,0.640000,0.640000,0.641000,0.641000,0.641000,0.641000,0.642000,0.642000,0.643000,0.643000,0.642000,0.642000,0.642000,0.642000,0.642000,0.641000,0.641000,0.642000,0.641000,0.641000,0.641000,0.641000,0.641000,0.641000,0.641000,0.642000,0.642000,0.642000,0.642000,0.642000,0.642000,0.642000,0.642000,0.642000,0.641000,0.641000,0.641000,0.641000,0.641000,0.641000,0.639000,0.639000,0.639000,0.639000,0.639000,0.639000,0.639000,0.639000,0.639000,0.639000,0.639000,0.639000,0.639000,0.639000,0.639000,0.638000,0.638000,0.639000,0.639000,0.639000,0.639000,0.639000,0.639000,0.639000,0.639000,0.639000,0.639000,0.639000,0.639000,0.639000,0.639000,0.638000,0.638000,0.638000,0.638000,0.638000,0.638000,0.637000,0.637000,0.637000,0.637000,0.638000,0.638000,0.638000,0.638000,0.638000,0.639000,0.639000,0.638000,0.638000,0.638000,0.638000,0.639000,0.639000,0.639000,0.638000,0.637000,0.637000,0.637000,0.637000,0.637000,0.637000,0.637000,0.637000,0.637000,0.637000,0.637000,0.637000,0.637000,0.637000,0.637000,0.637000,0.636000,0.636000,0.636000,0.635000,0.635000,0.635000,0.635000,0.635000,0.635000,0.635000,0.635000,0.635000,0.635000,0.635000,0.635000,0.635000,0.635000,0.635000,0.635000,0.635000,0.635000,0.635000,0.635000,0.635000,0.635000,0.635000,0.635000,0.635000,0.636000,0.636000,0.636000,0.636000,0.637000,0.637000,0.637000,0.637000,0.637000,0.637000,0.638000,0.638000,0.638000,0.638000,0.638000,0.638000,0.639000,0.639000,0.639000,0.639000,0.638000,0.638000,0.638000,0.638000,0.638000,0.638000,0.638000,0.638000,0.638000,0.638000,0.638000,0.638000,0.639000,0.639000,0.639000,0.639000,0.639000,0.639000,0.639000,0.639000,0.640000,0.640000,0.640000,1.629000,1.629000,1.629000,1.633000
0.467000,0.468000,0.468000,0.468000,0.468000,0.468000,0.468000,0.468000,0.468000,0.468000,0.467000,0.467000,0.467000,0.467000,0.467000,0.467000,0.467000,0.467000,0.467000,0.467000,0.467000,0.467000,0.467000,0.467000,0.467000,0.467000,0.467000,0.467000,0.467000,0.467000,0.467000,0.467000,0.467000,0.468000,0.468000,0.468000,0.469000,0.469000,0.470000,0.471000,0.471000,0.472000,0.474000,0.474000,0.475000,0.476000,0.476000,0.478000,0.478000,0.479000,0.481000,0.481000,0.482000,0.483000,0.483000,0.484000,0.485000,0.485000,0.486000,0.487000,0.487000,0.639000,0.639000,0.640000,0.640000,0.640000,0.640000,0.640000,0.640000,0.640000,0.640000,0.640000,0.640000,0.640000,0.640000,0.640000,0.640000,0.640000,0.640000,0.640000,0.641000,0.641000,0.641000,0.641000,0.641000,0.641000,0.641000,0.640000,0.640000,0.640000,0.640000,0.641000,0.640000,0.640000,0.640000,0.639000,0.639000,0.639000,0.639000,0.639000,0.639000,0.639000,0.639000,0.638000,0.638000,0.637000,0.637000,0.637000,0.637000,0.637000,0.637000,0.637000,0.637000,0.637000,0.637000,0.637000,0.637000,0.637000,0.637000,0.637000,0.637000,0.637000,0.638000,0.638000,0.638000,0.638000,0.638000,0.638000,0.638000,0.638000,0.638000,0.639000,0.639000,0.639000,0.639000,0.639000,0.639000,0.639000,0.639000,0.639000,0.639000,0.639000,0.639000,0.639000,0.639000,0.639000,0.640000,0.640000,0.640000,0.641000,0.641000,0.641000,0.641000,0.641000,0.641000,0.641000,0.641000,0.641000,0.641000,0.641000,0.640000,0.640000,0.640000,0.640000,0.640000,0.640000,0.640000,0.640000,0.640000,0.641000,0.641000,0.641000,0.641000,0.641000,0.641000,0.641000,0.641000,0.641000,0.640000,0.640000,0.640000,0.639000,0.639000,0.639000,0.639000,0.639000,0.638000,0.638000,0.638000,0.638000,0.639000,0.639000,0.639000,0.639000,0.639000,0.639000,0.639000,0.639000,0.639000,0.638000,0.638000,0.639000,0.639000,0.639000,0.639000,0.639000,0.639000,0.639000,0.639000,0.639000,0.639000,0.639000,0.639000,0.639000,0.639000,0.638000,0.638000,0.638000,0.638000,0.638000,0.638000,0.637000,0.637000,0.637000,0.637000,0.638000,0.638000,0.638000,0.638000,0.638000,0.639000,0.639000,0.638000,0.638000,0.638000,0.638000,0.639000,0.639000,0.639000,0.638000,0.637000,0.637000,0.637000,0.637000,0.637000,0.636000,0.636000,0.636000,0.636000,0.636000,0.636000,0.636000,0.636000,0.636000,0.636000,0.635000,0.635000,0.635000,0.635000,0.635000,0.635000,0.635000,0.635000,0.635000,0.635000,0.635000,0.635000,0.635000,0.635000,0.635000,0.635000,0.635000,0.635000,0.635000,0.635000,0.635000,0.635000,0.635000,0.635000,0.635000,0.635000,0.635000,0.635000,0.635000,0.635000,0.635000,0.636000,0.636000,0.636000,0.637000,0.637000,0.637000,0.637000,0.637000,0.637000,0.637000,0.637000,0.637000,0.637000,0.638000,0.638000,0.638000,0.638000,0.638000,0.638000,0.638000,0.637000,0.637000,0.637000,0.637000,0.637000,0.637000,0.637000,0.637000,0.637000,0.637000,0.638000,0.638000,0.639000,0.639000,0.639000,0.639000,0.639000,0.639000,0.640000,0.640000,0.640000,1.629000,1.629000,1.633000,1.633000
0.467000,0.468000,0.468000,0.468000,0.468000,0.468000,0.468000,0.468000,0.468000,0.468000,0.467000,0.467000,0.470000,0.470000,0.470000,0.470000,0.470000,0.470000,0.469000,0.469000,0.469000,0.469000,0.469000,0.469000,0.469000,0.469000,0.469000,0.469000,0.469000,0.469000,0.469000,0.469000,0.469000,0.470000,0.470000,0.470000,0.471000,0.471000,0.472000,0.472000,0.472000,0.474000,0.475000,0.475000,0.476000,0.477000,0.477000,0.479000,0.480000,0.480000,0.481000,0.481000,0.482000,0.484000,0.484000,0.485000,0.485000,0.485000,0.486000,0.487000,0.487000,0.639000,0.639000,0.639000,0.639000,0.639000,0.639000,0.639000,0.639000,0.639000,0.639000,0.639000,0.639000,0.639000,0.639000,0.639000,0.639000,0.639000,0.639000,0.639000,0.639000,0.639000,0.639000,0.639000,0.639000,0.639000,0.639000,0.639000,0.639000,0.639000,0.639000,0.639000,0.639000,0.639000,0.639000,0.639000,0.639000,0.639000,0.638000,0.638000,0.638000,0.638000,0.637000,0.637000,0.637000,0.637000,0.637000,0.637000,0.637000,0.637000,0.637000,0.637000,0.637000,0.637000,0.637000,0.637000,0.637000,0.637000,0.637000,0.637000,0.637000,0.637000,0.637000,0.637000,0.637000,0.637000,0.637000,0.638000,0.638000,0.638000,0.638000,0.639000,0.639000,0.639000,0.639000,0.639000,0.639000,0.639000,0.639000,0.639000,0.639000,0.639000,0.639000,0.639000,0.639000,0.639000,0.640000,0.640000,0.640000,0.641000,0.641000,0.641000,0.641000,0.641000,0.641000,0.641000,0.641000,0.641000,0.641000,0.641000,0.640000,0.640000,0.640000,0.640000,0.640000,0.640000,0.640000,0.640000,0.639000,0.639000,0.639000,0.640000,0.639000,0.639000,0.639000,0.639000,0.639000,0.639000,0.639000,0.639000,0.639000,0.638000,0.638000,0.638000,0.637000,0.637000,0.637000,0.637000,0.637000,0.637000,0.637000,0.637000,0.637000,0.637000,0.637000,0.637000,0.637000,0.638000,0.638000,0.637000,0.637000,0.638000,0.638000,0.638000,0.638000,0.638000,0.638000,0.638000,0.638000,0.638000,0.638000,0.638000,0.638000,0.637000,0.637000,0.637000,0.637000,0.637000,0.637000,0.637000,0.637000,0.637000,0.637000,0.637000,0.637000,0.637000,0.637000,0.637000,0.637000,0.637000,0.637000,0.637000,0.637000,0.638000,0.638000,0.638000,0.638000,0.638000,0.638000,0.637000,0.637000,0.637000,0.637000,0.637000,0.637000,0.636000,0.636000,0.636000,0.636000,0.636000,0.636000,0.636000,0.636000,0.636000,0.636000,0.635000,0.635000,0.635000,0.635000,0.635000,0.635000,0.635000,0.635000,0.635000,0.635000,0.635000,0.635000,0.635000,0.635000,0.635000,0.635000,0.635000,0.635000,0.635000,0.635000,0.635000,0.635000,0.635000,0.635000,0.635000,0.635000,0.635000,0.635000,0.635000,0.635000,0.635000,0.636000,0.635000,0.635000,0.636000,0.636000,0.636000,0.637000,0.637000,0.637000,0.637000,0.637000,0.637000,0.637000,0.637000,0.638000,0.638000,0.638000,0.638000,0.637000,0.637000,0.637000,0.637000,0.637000,0.637000,0.637000,0.637000,0.637000,0.637000,0.637000,0.637000,0.637000,0.637000,0.637000,0.637000,0.637000,0.638000,0.638000,0.638000,0.639000,0.639000,0.639000,1.629000,1.629000,1.629000,1.629000
0.470000,0.470000,0.470000,0.470000,0.471000,0.471000,0.471000,0.471000,0.471000,0.471000,0.470000,0.470000,0.470000,0.470000,0.470000,0.470000,0.470000,0.470000,0.469000,0.469000,0.469000,0.469000,0.469000,0.469000,0.469000,0.469000,0.469000,0.469000,0.469000,0.469000,0.469000,0.469000,0.469000,0.470000,0.470000,0.470000,0.471000,0.471000,0.472000,0.472000,0.472000,0.474000,0.475000,0.475000,0.476000,0.477000,0.477000,0.479000,0.479000,0.480000,0.481000,0.481000,0.482000,0.484000,0.484000,0.485000,0.485000,0.485000,0.486000,0.639000,0.639000,0.639000,0.639000,0.639000,0.639000,0.639000,0.639000,0.639000,0.639000,0.639000,0.639000,0.639000,0.639000,0.639000,0.639000,0.639000,0.639000,0.639000,0.639000,0.639000,0.639000,0.639000,0.639000,0.639000,0.639000,0.639000,0.639000,0.639000,0.639000,0.639000,0.639000,0.639000,0.639000,0.639000,0.639000,0.638000,0.638000,0.637000,0.637000,0.637000,0.637000,0.637000,0.637000,0.637000,0.637000,0.637000,0.636000,0.636000,0.636000,0.636000,0.636000,0.636000,0.636000,0.636000,0.637000,0.637000,0.637000,0.637000,0.637000,0.637000,0.637000,0.637000,0.637000,0.637000,0.637000,0.637000,0.637000,0.637000,0.638000,0.638000,0.638000,0.638000,0.638000,0.639000,0.639000,0.639000,0.639000,0.639000,0.639000,0.639000,0.639000,0.639000,0.639000,0.639000,0.639000,0.639000,0.639000,0.639000,0.639000,0.640000,0.640000,0.640000,0.641000,0.641000,0.640000,0.640000,0.640000,0.639000,0.639000,0.639000,0.639000,0.639000,0.639000,0.639000,0.639000,0.639000,0.639000,0.639000,0.639000,0.639000,0.639000,0.640000,0.639000,0.639000,0.639000,0.639000,0.639000,0.639000,0.639000,0.639000,0.639000,0.638000,0.638000,0.638000,0.637000,0.637000,0.637000,0.637000,0.637000,0.637000,0.637000,0.637000,0.637000,0.637000,0.637000,0.637000,0.637000,0.638000,0.638000,0.637000,0.637000,0.638000,0.638000,0.638000,0.638000,0.638000,0.638000,0.638000,0.638000,0.638000,0.638000,0.638000,0.638000,0.637000,0.637000,0.637000,0.637000,0.637000,0.636000,0.636000,0.636000,0.636000,0.637000,0.636000,0.636000,0.637000,0.637000,0.637000,0.637000,0.637000,0.637000,0.637000,0.637000,0.637000,0.637000,0.637000,0.637000,0.637000,0.637000,0.637000,0.637000,0.637000,0.637000,0.636000,0.636000,0.636000,0.636000,0.636000,0.635000,0.635000,0.635000,0.635000,0.635000,0.635000,0.635000,0.635000,0.635000,0.635000,0.634000,0.634000,0.634000,0.634000,0.634000,0.634000,0.635000,0.635000,0.635000,0.634000,0.634000,0.634000,0.634000,0.634000,0.635000,0.635000,0.635000,0.634000,0.634000,0.634000,0.634000,0.634000,0.634000,0.635000,0.635000,0.635000,0.635000,0.635000,0.635000,0.635000,0.635000,0.636000,0.636000,0.636000,0.637000,0.637000,0.637000,0.637000,0.637000,0.637000,0.637000,0.637000,0.638000,0.638000,0.638000,0.638000,0.637000,0.637000,0.637000,0.637000,0.637000,0.637000,0.637000,0.637000,0.637000,0.637000,0.637000,0.637000,0.637000,0.637000,0.637000,0.637000,0.637000,0.638000,0.638000,0.638000,0.639000,0.639000,0.639000,1.629000,1.629000,1.629000,1.629000
0.471000,0.472000,0.472000,0.472000,0.473000,0.473000,0.473000,0.473000,0.473000,0.473000,0.473000,0.473000,0.473000,0.473000,0.472000,0.472000,0.472000,0.472000,0.472000,0.471000,0.471000,0.471000,0.471000,0.471000,0.471000,0.471000,0.471000,0.471000,0.471000,0.471000,0.471000,0.471000,0.471000,0.471000,0.471000,0.471000,0.472000,0.472000,0.473000,0.474000,0.474000,0.474000,0.475000,0.475000,0.476000,0.478000,0.478000,0.479000,0.479000,0.480000,0.481000,0.481000,0.482000,0.484000,0.484000,0.485000,0.485000,0.485000,0.486000,0.637000,0.637000,0.638000,0.638000,0.639000,0.639000,0.639000,0.639000,0.638000,0.638000,0.638000,0.638000,0.639000,0.639000,0.639000,0.639000,0.639000,0.639000,0.639000,0.639000,0.639000,0.639000,0.639000,0.639000,0.639000,0.639000,0.639000,0.639000,0.639000,0.639000,0.639000,0.639000,0.639000,0.639000,0.639000,0.638000,0.638000,0.638000,0.637000,0.637000,0.637000,0.637000,0.637000,0.637000,0.637000,0.637000,0.637000,0.636000,0.636000,0.636000,0.636000,0.636000,0.636000,0.636000,0.636000,0.637000,0.637000,0.637000,0.637000,0.637000,0.637000,0.637000,0.637000,0.637000,0.637000,0.637000,0.637000,0.637000,0.637000,0.638000,0.638000,0.638000,0.638000,0.638000,0.639000,0.639000,0.639000,0.639000,0.639000,0.639000,0.639000,0.639000,0.639000,0.639000,0.639000,0.639000,0.639000,0.639000,0.639000,0.639000,0.639000,0.639000,0.639000,0.640000,0.639000,0.639000,0.639000,0.639000,0.639000,0.639000,0.639000,0.639000,0.639000,0.638000,0.638000,0.638000,0.638000,0.638000,0.638000,0.638000,0.638000,0.639000,0.639000,0.639000,0.639000,0.639000,0.638000,0.638000,0.638000,0.637000,0.637000,0.637000,0.637000,0.637000,0.637000,0.637000,0.637000,0.637000,0.637000,0.636000,0.636000,0.637000,0.637000,0.637000,0.637000,0.637000,0.637000,0.637000,0.637000,0.637000,0.637000,0.637000,0.637000,0.637000,0.637000,0.637000,0.637000,0.637000,0.637000,0.637000,0.637000,0.637000,0.637000,0.637000,0.637000,0.637000,0.637000,0.637000,0.637000,0.636000,0.636000,0.636000,0.636000,0.637000,0.636000,0.636000,0.637000,0.637000,0.637000,0.637000,0.637000,0.637000,0.637000,0.637000,0.637000,0.637000,0.637000,0.637000,0.637000,0.637000,0.637000,0.637000,0.637000,0.637000,0.636000,0.636000,0.636000,0.636000,0.636000,0.635000,0.635000,0.635000,0.635000,0.635000,0.635000,0.635000,0.635000,0.634000,0.634000,0.634000,0.634000,0.633000,0.633000,0.633000,0.633000,0.633000,0.633000,0.633000,0.633000,0.633000,0.633000,0.634000,0.634000,0.634000,0.634000,0.634000,0.633000,0.633000,0.633000,0.633000,0.633000,0.633000,0.633000,0.633000,0.633000,0.633000,0.633000,0.633000,0.633000,0.634000,0.635000,0.635000,0.635000,0.635000,0.635000,0.636000,0.636000,0.636000,0.637000,0.637000,0.637000,0.637000,0.637000,0.637000,0.637000,0.637000,0.637000,0.637000,0.637000,0.637000,0.637000,0.637000,0.637000,0.636000,0.636000,0.636000,0.636000,0.637000,0.637000,0.637000,0.637000,0.637000,0.637000,0.637000,0.637000,0.637000,0.637000,0.637000,0.637000,1.629000,1.629000,1.629000
0.471000,0.472000,0.472000,0.472000,0.473000,0.473000,0.473000,0.473000,0.473000,0.473000,0.473000,0.473000,0.473000,0.473000,0.472000,0.472000,0.472000,0.472000,0.472000,0.471000,0.471000,0.471000,0.471000,0.471000,0.471000,0.473000,0.472000,0.472000,0.472000,0.472000,0.472000,0.472000,0.472000,0.472000,0.472000,0.472000,0.473000,0.473000,0.474000,0.474000,0.474000,0.475000,0.476000,0.476000,0.477000,0.478000,0.478000,0.480000,0.481000,0.481000,0.482000,0.482000,0.483000,0.484000,0.484000,0.485000,0.486000,0.486000,0.487000,0.637000,0.637000,0.638000,0.638000,0.639000,0.639000,0.638000,0.638000,0.638000,0.638000,0.638000,0.638000,0.638000,0.638000,0.638000,0.638000,0.638000,0.638000,0.638000,0.638000,0.638000,0.638000,0.638000,0.638000,0.638000,0.638000,0.638000,0.638000,0.638000,0.638000,0.638000,0.638000,0.638000,0.638000,0.638000,0.637000,0.637000,0.637000,0.637000,0.637000,0.637000,0.637000,0.637000,0.637000,0.636000,0.636000,0.636000,0.636000,0.636000,0.636000,0.636000,0.636000,0.636000,0.636000,0.636000,0.636000,0.636000,0.636000,0.637000,0.637000,0.637000,0.637000,0.637000,0.637000,0.637000,0.637000,0.637000,0.637000,0.637000,0.637000,0.637000,0.638000,0.638000,0.638000,0.638000,0.638000,0.638000,0.638000,0.638000,0.639000,0.639000,0.639000,0.639000,0.639000,0.639000,0.639000,0.639000,0.639000,0.639000,0.639000,0.639000,0.639000,0.639000,0.640000,0.639000,0.639000,0.639000,0.639000,0.639000,0.639000,0.639000,0.639000,0.639000,0.638000,0.638000,0.638000,0.638000,0.638000,0.638000,0.638000,0.638000,0.639000,0.639000,0.639000,0.639000,0.639000,0.638000,0.638000,0.638000,0.637000,0.637000,0.637000,0.637000,0.637000,0.636000,0.636000,0.636000,0.636000,0.636000,0.636000,0.636000,0.636000,0.636000,0.637000,0.637000,0.637000,0.637000,0.637000,0.637000,0.637000,0.637000,0.637000,0.637000,0.637000,0.637000,0.637000,0.637000,0.637000,0.637000,0.637000,0.637000,0.637000,0.637000,0.637000,0.636000,0.636000,0.636000,0.636000,0.636000,0.636000,0.636000,0.635000,0.635000,0.636000,0.635000,0.635000,0.636000,0.636000,0.636000,0.636000,0.636000,0.636000,0.636000,0.636000,0.636000,0.636000,0.636000,0.636000,0.636000,0.636000,0.636000,0.636000,0.636000,0.635000,0.635000,0.635000,0.635000,0.635000,0.635000,0.634000,0.634000,0.634000,0.634000,0.634000,0.634000,0.634000,0.634000,0.634000,0.634000,0.634000,0.634000,0.633000,0.633000,0.633000,0.633000,0.633000,0.633000,0.633000,0.633000,0.633000,0.633000,0.634000,0.634000,0.634000,0.634000,0.634000,0.633000,0.633000,0.633000,0.633000,0.633000,0.633000,0.633000,0.633000,0.633000,0.633000,0.633000,0.633000,0.633000,0.634000,0.635000,0.635000,0.635000,0.635000,0.635000,0.636000,0.636000,0.636000,0.637000,0.637000,0.637000,0.637000,0.637000,0.637000,0.637000,0.637000,0.637000,0.637000,0.636000,0.636000,0.636000,0.636000,0.636000,0.636000,0.636000,0.636000,0.636000,0.636000,0.636000,0.636000,0.636000,0.637000,0.637000,0.637000,0.637000,0.637000,0.637000,0.637000,0.637000,1.629000,1.629000,1.629000
0.473000,0.474000,0.474000,0.474000,0.475000,0.475000,0.475000,0.475000,0.475000,0.475000,0.475000,0.475000,0.475000,0.475000,0.475000,0.475000,0.475000,0.475000,0.474000,0.474000,0.474000,0.474000,0.473000,0.473000,0.473000,0.473000,0.472000,0.472000,0.472000,0.472000,0.472000,0.472000,0.472000,0.472000,0.472000,0.472000,0.473000,0.473000,0.474000,0.474000,0.474000,0.475000,0.476000,0.476000,0.477000,0.478000,0.478000,0.480000,0.480000,0.481000,0.482000,0.482000,0.483000,0.484000,0.484000,0.485000,0.486000,0.486000,0.487000,0.636000,0.637000,0.637000,0.637000,0.637000,0.637000,0.637000,0.638000,0.638000,0.638000,0.638000,0.638000,0.638000,0.638000,0.638000,0.638000,0.638000,0.638000,0.638000,0.638000,0.638000,0.638000,0.638000,0.638000,0.638000,0.638000,0.638000,0.638000,0.638000,0.638000,0.638000,0.638000,0.638000,0.638000,0.638000,0.637000,0.637000,0.637000,0.637000,0.637000,0.637000,0.637000,0.637000,0.637000,0.636000,0.636000,0.636000,0.636000,0.636000,0.636000,0.636000,0.635000,0.635000,0.636000,0.636000,0.636000,0.636000,0.636000,0.637000,0.637000,0.637000,0.637000,0.637000,0.637000,0.637000,0.637000,0.637000,0.637000,0.637000,0.637000,0.637000,0.637000,0.637000,0.637000,0.637000,0.637000,0.638000,0.638000,0.638000,0.638000,0.638000,0.638000,0.638000,0.638000,0.638000,0.638000,0.638000,0.639000,0.639000,0.639000,0.639000,0.639000,0.639000,0.639000,0.639000,0.638000,0.638000,0.638000,0.638000,0.638000,0.637000,0.637000,0.637000,0.637000,0.637000,0.637000,0.637000,0.637000,0.637000,0.637000,0.637000,0.637000,0.637000,0.637000,0.637000,0.637000,0.637000,0.637000,0.637000,0.637000,0.637000,0.637000,0.636000,0.636000,0.636000,0.636000,0.636000,0.636000,0.636000,0.636000,0.636000,0.636000,0.636000,0.637000,0.637000,0.637000,0.637000,0.637000,0.637000,0.637000,0.637000,0.637000,0.637000,0.637000,0.637000,0.637000,0.637000,0.637000,0.637000,0.637000,0.637000,0.637000,0.637000,0.637000,0.636000,0.636000,0.636000,0.636000,0.636000,0.636000,0.636000,0.635000,0.635000,0.636000,0.635000,0.635000,0.636000,0.635000,0.635000,0.635000,0.635000,0.635000,0.635000,0.635000,0.635000,0.635000,0.635000,0.635000,0.635000,0.635000,0.635000,0.635000,0.635000,0.635000,0.635000,0.634000,0.634000,0.635000,0.634000,0.634000,0.634000,0.633000,0.633000,0.633000,0.633000,0.633000,0.633000,0.633000,0.633000,0.633000,0.633000,0.633000,0.633000,0.633000,0.633000,0.633000,0.633000,0.633000,0.633000,0.633000,0.633000,0.633000,0.633000,0.633000,0.633000,0.633000,0.633000,0.633000,0.632000,0.632000,0.632000,0.632000,0.632000,0.632000,0.632000,0.632000,0.632000,0.632000,0.632000,0.633000,0.633000,0.633000,0.634000,0.635000,0.635000,0.635000,0.635000,0.635000,0.636000,0.636000,0.636000,0.637000,0.637000,0.637000,0.637000,0.637000,0.637000,0.637000,0.636000,0.636000,0.636000,0.636000,0.636000,0.636000,0.636000,0.636000,0.636000,0.636000,0.636000,0.636000,0.636000,0.637000,0.637000,0.637000,0.637000,0.637000,0.637000,0.637000,0.637000,1.629000,1.629000,1.629000
0.474000,0.475000,0.475000,0.475000,0.476000,0.476000,0.476000,0.477000,0.477000,0.477000,0.477000,0.477000,0.478000,0.478000,0.478000,0.478000,0.477000,0.476000,0.476000,0.476000,0.476000,0.476000,0.475000,0.475000,0.475000,0.474000,0.474000,0.474000,0.474000,0.473000,0.473000,0.474000,0.474000,0.473000,0.473000,0.473000,0.474000,0.474000,0.475000,0.475000,0.475000,0.475000,0.476000,0.476000,0.478000,0.479000,0.479000,0.480000,0.480000,0.481000,0.482000,0.482000,0.483000,0.484000,0.484000,0.485000,0.635000,0.635000,0.636000,0.636000,0.636000,0.637000,0.637000,0.637000,0.637000,0.637000,0.637000,0.637000,0.637000,0.637000,0.637000,0.637000,0.637000,0.637000,0.637000,0.637000,0.637000,0.638000,0.638000,0.637000,0.637000,0.637000,0.637000,0.637000,0.637000,0.637000,0.637000,0.637000,0.637000,0.637000,0.637000,0.637000,0.637000,0.637000,0.637000,0.637000,0.637000,0.636000,0.636000,0.636000,0.636000,0.636000,0.636000,0.636000,0.636000,0.636000,0.636000,0.636000,0.636000,0.636000,0.635000,0.635000,0.636000,0.636000,0.637000,0.637000,0.637000,0.637000,0.637000,0.637000,0.637000,0.637000,0.637000,0.637000,0.637000,0.637000,0.637000,0.637000,0.637000,0.637000,0.637000,0.637000,0.637000,0.637000,0.637000,0.638000,0.638000,0.638000,0.638000,0.638000,0.638000,0.638000,0.638000,0.638000,0.638000,0.638000,0.639000,0.639000,0.639000,0.639000,0.639000,0.639000,0.639000,0.637000,0.637000,0.637000,0.637000,0.637000,0.637000,0.637000,0.637000,0.637000,0.636000,0.636000,0.636000,0.636000,0.636000,0.636000,0.636000,0.636000,0.636000,0.636000,0.636000,0.636000,0.636000,0.635000,0.635000,0.635000,0.635000,0.635000,0.635000,0.635000,0.635000,0.635000,0.635000,0.635000,0.635000,0.635000,0.635000,0.635000,0.635000,0.635000,0.636000,0.636000,0.636000,0.636000,0.636000,0.636000,0.636000,0.636000,0.636000,0.636000,0.636000,0.636000,0.636000,0.636000,0.636000,0.636000,0.636000,0.636000,0.636000,0.636000,0.636000,0.636000,0.636000,0.636000,0.635000,0.635000,0.635000,0.635000,0.635000,0.635000,0.635000,0.635000,0.635000,0.635000,0.635000,0.635000,0.635000,0.635000,0.635000,0.635000,0.635000,0.635000,0.635000,0.635000,0.635000,0.635000,0.635000,0.635000,0.635000,0.635000,0.635000,0.635000,0.634000,0.634000,0.635000,0.634000,0.634000,0.634000,0.633000,0.633000,0.633000,0.633000,0.633000,0.633000,0.633000,0.633000,0.633000,0.633000,0.633000,0.633000,0.633000,0.633000,0.633000,0.633000,0.633000,0.633000,0.633000,0.633000,0.633000,0.632000,0.632000,0.632000,0.632000,0.632000,0.631000,0.631000,0.631000,0.631000,0.631000,0.631000,0.631000,0.631000,0.631000,0.631000,0.631000,0.631000,0.631000,0.633000,0.633000,0.633000,0.633000,0.633000,0.634000,0.634000,0.635000,0.635000,0.635000,0.635000,0.635000,0.635000,0.636000,0.636000,0.636000,0.636000,0.635000,0.635000,0.635000,0.635000,0.636000,0.635000,0.635000,0.636000,0.636000,0.636000,0.636000,0.635000,0.635000,0.635000,0.636000,0.636000,0.636000,0.636000,0.636000,0.636000,0.636000,0.636000,1.624000,1.624000,1.624000
0.474000,0.475000,0.475000,0.475000,0.476000,0.476000,0.476000,0.477000,0.477000,0.477000,0.477000,0.477000,0.478000,0.478000,0.478000,0.478000,0.477000,0.476000,0.476000,0.476000,0.476000,0.476000,0.475000,0.475000,0.475000,0.474000,0.474000,0.474000,0.474000,0.473000,0.473000,0.474000,0.474000,0.473000,0.473000,0.473000,0.474000,0.474000,0.475000,0.476000,0.476000,0.476000,0.477000,0.477000,0.478000,0.479000,0.479000,0.481000,0.481000,0.481000,0.482000,0.482000,0.483000,0.484000,0.484000,0.635000,0.635000,0.635000,0.636000,0.636000,0.636000,0.637000,0.637000,0.637000,0.637000,0.637000,0.637000,0.637000,0.637000,0.637000,0.637000,0.637000,0.637000,0.637000,0.637000,0.637000,0.637000,0.638000,0.637000,0.637000,0.637000,0.637000,0.637000,0.637000,0.637000,0.637000,0.637000,0.637000,0.637000,0.636000,0.636000,0.636000,0.636000,0.636000,0.636000,0.636000,0.636000,0.636000,0.636000,0.635000,0.635000,0.635000,0.635000,0.635000,0.635000,0.635000,0.635000,0.635000,0.635000,0.635000,0.635000,0.635000,0.636000,0.635000,0.635000,0.635000,0.636000,0.636000,0.636000,0.636000,0.636000,0.636000,0.636000,0.636000,0.636000,0.636000,0.636000,0.636000,0.636000,0.636000,0.637000,0.637000,0.637000,0.637000,0.637000,0.637000,0.637000,0.637000,0.637000,0.637000,0.637000,0.637000,0.637000,0.637000,0.637000,0.637000,0.638000,0.638000,0.637000,0.637000,0.637000,0.637000,0.637000,0.637000,0.637000,0.637000,0.637000,0.637000,0.637000,0.637000,0.637000,0.637000,0.636000,0.636000,0.636000,0.636000,0.636000,0.636000,0.636000,0.636000,0.636000,0.636000,0.636000,0.636000,0.636000,0.635000,0.635000,0.635000,0.635000,0.635000,0.635000,0.635000,0.635000,0.635000,0.635000,0.635000,0.635000,0.635000,0.635000,0.635000,0.635000,0.635000,0.636000,0.636000,0.636000,0.636000,0.635000,0.635000,0.635000,0.635000,0.635000,0.635000,0.635000,0.635000,0.635000,0.635000,0.635000,0.635000,0.635000,0.635000,0.635000,0.635000,0.635000,0.635000,0.635000,0.635000,0.635000,0.635000,0.634000,0.634000,0.634000,0.634000,0.634000,0.634000,0.634000,0.634000,0.634000,0.634000,0.634000,0.634000,0.634000,0.634000,0.634000,0.634000,0.634000,0.634000,0.634000,0.634000,0.634000,0.634000,0.633000,0.633000,0.633000,0.633000,0.633000,0.633000,0.633000,0.633000,0.633000,0.633000,0.633000,0.633000,0.633000,0.633000,0.633000,0.633000,0.633000,0.633000,0.633000,0.633000,0.633000,0.633000,0.633000,0.632000,0.632000,0.633000,0.633000,0.633000,0.633000,0.633000,0.633000,0.632000,0.632000,0.632000,0.632000,0.632000,0.631000,0.631000,0.631000,0.631000,0.631000,0.631000,0.631000,0.631000,0.631000,0.631000,0.631000,0.631000,0.631000,0.633000,0.633000,0.633000,0.633000,0.633000,0.634000,0.634000,0.635000,0.635000,0.635000,0.635000,0.635000,0.635000,0.636000,0.636000,0.636000,0.636000,0.635000,0.635000,0.635000,0.635000,0.636000,0.635000,0.635000,0.636000,0.635000,0.635000,0.635000,0.635000,0.635000,0.635000,0.635000,0.635000,0.635000,0.635000,0.635000,0.635000,0.635000,0.635000,0.635000,1.620000,1.620000
0.475000,0.476000,0.476000,0.476000,0.477000,0.477000,0.478000,0.479000,0.479000,0.480000,0.480000,0.480000,0.480000,0.480000,0.481000,0.481000,0.481000,0.481000,0.481000,0.480000,0.480000,0.479000,0.479000,0.479000,0.478000,0.476000,0.476000,0.476000,0.476000,0.475000,0.474000,0.474000,0.474000,0.474000,0.474000,0.474000,0.475000,0.475000,0.475000,0.476000,0.476000,0.476000,0.477000,0.477000,0.478000,0.479000,0.479000,0.481000,0.481000,0.481000,0.482000,0.482000,0.483000,0.484000,0.484000,0.635000,0.635000,0.635000,0.635000,0.635000,0.635000,0.636000,0.635000,0.635000,0.635000,0.636000,0.636000,0.636000,0.636000,0.637000,0.637000,0.637000,0.637000,0.637000,0.637000,0.637000,0.637000,0.637000,0.637000,0.637000,0.637000,0.637000,0.637000,0.637000,0.637000,0.637000,0.637000,0.637000,0.637000,0.636000,0.636000,0.636000,0.636000,0.636000,0.636000,0.636000,0.636000,0.636000,0.636000,0.635000,0.635000,0.635000,0.635000,0.635000,0.635000,0.635000,0.635000,0.635000,0.635000,0.635000,0.635000,0.635000,0.636000,0.635000,0.635000,0.635000,0.636000,0.636000,0.636000,0.636000,0.636000,0.636000,0.635000,0.635000,0.635000,0.635000,0.635000,0.635000,0.635000,0.635000,0.635000,0.636000,0.636000,0.636000,0.636000,0.636000,0.636000,0.636000,0.636000,0.637000,0.637000,0.637000,0.637000,0.637000,0.637000,0.637000,0.637000,0.637000,0.637000,0.637000,0.637000,0.637000,0.637000,0.637000,0.636000,0.636000,0.636000,0.635000,0.635000,0.635000,0.635000,0.635000,0.635000,0.635000,0.635000,0.635000,0.635000,0.635000,0.635000,0.635000,0.635000,0.635000,0.635000,0.635000,0.635000,0.635000,0.635000,0.635000,0.634000,0.634000,0.634000,0.634000,0.634000,0.634000,0.635000,0.634000,0.634000,0.634000,0.634000,0.634000,0.635000,0.635000,0.635000,0.635000,0.635000,0.635000,0.635000,0.635000,0.635000,0.635000,0.635000,0.635000,0.635000,0.635000,0.635000,0.635000,0.635000,0.635000,0.635000,0.635000,0.635000,0.635000,0.635000,0.635000,0.635000,0.635000,0.635000,0.635000,0.634000,0.634000,0.634000,0.634000,0.634000,0.634000,0.634000,0.634000,0.634000,0.634000,0.634000,0.634000,0.634000,0.634000,0.634000,0.634000,0.634000,0.634000,0.634000,0.634000,0.634000,0.634000,0.632000,0.632000,0.632000,0.632000,0.632000,0.632000,0.633000,0.632000,0.632000,0.632000,0.631000,0.631000,0.631000,0.631000,0.631000,0.631000,0.631000,0.631000,0.631000,0.631000,0.631000,0.631000,0.631000,0.631000,0.631000,0.631000,0.631000,0.631000,0.631000,0.631000,0.632000,0.631000,0.631000,0.631000,0.631000,0.631000,0.631000,0.630000,0.630000,0.630000,0.629000,0.629000,0.629000,0.629000,0.629000,0.629000,0.629000,0.629000,0.631000,0.631000,0.631000,0.631000,0.631000,0.632000,0.633000,0.633000,0.634000,0.634000,0.634000,0.634000,0.635000,0.635000,0.635000,0.635000,0.635000,0.635000,0.635000,0.635000,0.635000,0.635000,0.635000,0.635000,0.635000,0.635000,0.635000,0.635000,0.635000,0.635000,0.635000,0.635000,0.635000,0.635000,0.635000,0.635000,0.635000,0.635000,0.635000,0.635000,0.635000,1.620000,1.620000
0.475000,0.476000,0.476000,0.476000,0.477000,0.477000,0.478000,0.484000,0.484000,0.485000,0.485000,0.485000,0.487000,0.487000,0.487000,0.488000,0.488000,0.488000,0.488000,0.487000,0.485000,0.485000,0.484000,0.484000,0.484000,0.482000,0.482000,0.481000,0.481000,0.479000,0.478000,0.478000,0.476000,0.475000,0.475000,0.475000,0.476000,0.476000,0.476000,0.476000,0.476000,0.477000,0.478000,0.478000,0.478000,0.479000,0.479000,0.481000,0.481000,0.481000,0.482000,0.482000,0.632000,0.632000,0.633000,0.634000,0.634000,0.634000,0.634000,0.634000,0.634000,0.634000,0.634000,0.635000,0.635000,0.635000,0.635000,0.635000,0.635000,0.635000,0.635000,0.635000,0.635000,0.636000,0.636000,0.636000,0.636000,0.636000,0.636000,0.636000,0.635000,0.635000,0.635000,0.635000,0.636000,0.636000,0.636000,0.635000,0.635000,0.635000,0.635000,0.635000,0.635000,0.635000,0.635000,0.635000,0.635000,0.635000,0.635000,0.635000,0.635000,0.635000,0.635000,0.635000,0.635000,0.634000,0.634000,0.634000,0.635000,0.635000,0.635000,0.635000,0.635000,0.635000,0.635000,0.635000,0.635000,0.635000,0.635000,0.635000,0.635000,0.635000,0.635000,0.635000,0.635000,0.635000,0.635000,0.635000,0.635000,0.635000,0.635000,0.636000,0.636000,0.636000,0.636000,0.636000,0.636000,0.636000,0.636000,0.637000,0.637000,0.637000,0.637000,0.637000,0.637000,0.637000,0.637000,0.637000,0.637000,0.637000,0.637000,0.637000,0.637000,0.637000,0.636000,0.636000,0.636000,0.635000,0.635000,0.635000,0.635000,0.635000,0.635000,0.635000,0.635000,0.634000,0.634000,0.634000,0.634000,0.634000,0.634000,0.634000,0.634000,0.634000,0.634000,0.633000,0.633000,0.633000,0.633000,0.633000,0.633000,0.633000,0.633000,0.633000,0.634000,0.633000,0.633000,0.633000,0.633000,0.633000,0.634000,0.634000,0.634000,0.634000,0.634000,0.634000,0.634000,0.634000,0.634000,0.634000,0.634000,0.634000,0.634000,0.634000,0.634000,0.635000,0.635000,0.634000,0.634000,0.634000,0.634000,0.634000,0.633000,0.633000,0.633000,0.633000,0.633000,0.633000,0.633000,0.633000,0.633000,0.633000,0.633000,0.633000,0.633000,0.633000,0.633000,0.633000,0.633000,0.633000,0.633000,0.633000,0.633000,0.633000,0.633000,0.633000,0.633000,0.633000,0.633000,0.633000,0.632000,0.632000,0.632000,0.632000,0.632000,0.632000,0.633000,0.632000,0.632000,0.632000,0.631000,0.631000,0.631000,0.631000,0.631000,0.631000,0.631000,0.631000,0.631000,0.631000,0.631000,0.631000,0.631000,0.631000,0.631000,0.631000,0.631000,0.631000,0.631000,0.631000,0.632000,0.631000,0.631000,0.631000,0.631000,0.631000,0.631000,0.630000,0.630000,0.630000,0.629000,0.629000,0.629000,0.629000,0.628000,0.628000,0.628000,0.628000,0.629000,0.629000,0.629000,0.630000,0.630000,0.631000,0.632000,0.632000,0.633000,0.633000,0.633000,0.633000,0.633000,0.634000,0.634000,0.634000,0.635000,0.635000,0.634000,0.634000,0.634000,0.634000,0.634000,0.634000,0.635000,0.635000,0.635000,0.635000,0.635000,0.635000,0.635000,0.635000,0.634000,0.634000,0.634000,0.634000,0.634000,0.634000,0.635000,0.634000,0.634000,1.616000,1.620000
0.476000,0.477000,0.477000,0.478000,0.480000,0.480000,0.482000,0.484000,0.484000,0.485000,0.485000,0.485000,0.487000,0.487000,0.487000,0.488000,0.488000,0.488000,0.488000,0.487000,0.485000,0.485000,0.484000,0.484000,0.484000,0.482000,0.482000,0.481000,0.481000,0.479000,0.478000,0.478000,0.476000,0.475000,0.475000,0.475000,0.476000,0.476000,0.476000,0.476000,0.476000,0.477000,0.478000,0.478000,0.478000,0.479000,0.479000,0.481000,0.481000,0.481000,0.482000,0.482000,0.632000,0.632000,0.633000,0.634000,0.634000,0.634000,0.634000,0.634000,0.634000,0.634000,0.634000,0.635000,0.635000,0.635000,0.635000,0.635000,0.635000,0.635000,0.635000,0.635000,0.635000,0.636000,0.636000,0.636000,0.636000,0.636000,0.636000,0.636000,0.635000,0.635000,0.635000,0.635000,0.636000,0.636000,0.636000,0.635000,0.635000,0.635000,0.635000,0.635000,0.635000,0.635000,0.635000,0.634000,0.634000,0.634000,0.634000,0.634000,0.634000,0.634000,0.634000,0.634000,0.634000,0.634000,0.634000,0.634000,0.634000,0.634000,0.634000,0.634000,0.634000,0.633000,0.633000,0.633000,0.634000,0.634000,0.634000,0.634000,0.634000,0.634000,0.634000,0.634000,0.635000,0.635000,0.635000,0.634000,0.634000,0.634000,0.635000,0.635000,0.635000,0.635000,0.635000,0.635000,0.635000,0.635000,0.635000,0.635000,0.635000,0.635000,0.635000,0.635000,0.636000,0.636000,0.636000,0.636000,0.636000,0.636000,0.636000,0.636000,0.636000,0.635000,0.635000,0.635000,0.635000,0.635000,0.635000,0.635000,0.635000,0.635000,0.634000,0.634000,0.634000,0.634000,0.634000,0.634000,0.634000,0.634000,0.634000,0.634000,0.634000,0.634000,0.634000,0.633000,0.633000,0.633000,0.633000,0.633000,0.633000,0.633000,0.633000,0.633000,0.634000,0.633000,0.633000,0.633000,0.633000,0.633000,0.634000,0.634000,0.634000,0.634000,0.634000,0.634000,0.634000,0.634000,0.634000,0.634000,0.634000,0.634000,0.634000,0.634000,0.634000,0.635000,0.635000,0.634000,0.634000,0.634000,0.633000,0.633000,0.633000,0.633000,0.633000,0.633000,0.633000,0.633000,0.633000,0.633000,0.633000,0.633000,0.633000,0.633000,0.633000,0.633000,0.632000,0.632000,0.632000,0.632000,0.632000,0.632000,0.632000,0.632000,0.632000,0.632000,0.632000,0.632000,0.632000,0.631000,0.631000,0.631000,0.631000,0.631000,0.631000,0.631000,0.631000,0.631000,0.631000,0.631000,0.631000,0.631000,0.631000,0.631000,0.631000,0.631000,0.631000,0.631000,0.631000,0.631000,0.631000,0.631000,0.631000,0.631000,0.631000,0.631000,0.631000,0.631000,0.631000,0.631000,0.631000,0.631000,0.630000,0.630000,0.629000,0.629000,0.629000,0.629000,0.629000,0.629000,0.628000,0.628000,0.628000,0.628000,0.628000,0.628000,0.628000,0.628000,0.629000,0.629000,0.629000,0.630000,0.630000,0.631000,0.632000,0.632000,0.633000,0.633000,0.633000,0.633000,0.633000,0.634000,0.634000,0.634000,0.635000,0.635000,0.634000,0.634000,0.634000,0.634000,0.634000,0.634000,0.635000,0.635000,0.635000,0.635000,0.635000,0.635000,0.635000,0.635000,0.634000,0.634000,0.634000,0.634000,0.634000,0.634000,0.635000,0.634000,0.634000,1.612000,1.612000
0.478000,0.480000,0.480000,0.483000,0.485000,0.485000,0.488000,0.490000,0.491000,0.491000,0.492000,0.492000,0.494000,0.494000,0.494000,0.494000,0.494000,0.494000,0.493000,0.493000,0.491000,0.491000,0.490000,0.489000,0.489000,0.487000,0.487000,0.487000,0.488000,0.000000,0.481000,0.481000,0.481000,0.477000,0.477000,0.477000,0.477000,0.477000,0.477000,0.000000,0.000000,0.000000,0.000000,0.000000,0.000000,0.631000,0.631000,0.631000,0.631000,0.631000,0.632000,0.632000,0.632000,0.632000,0.633000,0.633000,0.633000,0.633000,0.633000,0.633000,0.633000,0.633000,0.633000,0.634000,0.634000,0.634000,0.634000,0.634000,0.635000,0.635000,0.635000,0.635000,0.635000,0.635000,0.635000,0.635000,0.635000,0.635000,0.635000,0.635000,0.635000,0.635000,0.635000,0.635000,0.635000,0.635000,0.635000,0.635000,0.635000,0.635000,0.635000,0.635000,0.635000,0.635000,0.635000,0.634000,0.634000,0.634000,0.634000,0.634000,0.634000,0.634000,0.634000,0.634000,0.634000,0.634000,0.634000,0.634000,0.634000,0.634000,0.634000,0.634000,0.634000,0.633000,0.633000,0.633000,0.634000,0.634000,0.634000,0.634000,0.634000,0.634000,0.634000,0.634000,0.635000,0.635000,0.635000,0.634000,0.634000,0.634000,0.635000,0.635000,0.635000,0.635000,0.635000,0.634000,0.634000,0.634000,0.634000,0.635000,0.635000,0.635000,0.635000,0.635000,0.635000,0.635000,0.635000,0.635000,0.635000,0.635000,0.635000,0.635000,0.635000,0.635000,0.635000,0.635000,0.634000,0.634000,0.634000,0.634000,0.634000,0.634000,0.634000,0.634000,0.633000,0.633000,0.633000,0.633000,0.633000,0.633000,0.633000,0.633000,0.633000,0.633000,0.633000,0.633000,0.633000,0.633000,0.633000,0.633000,0.633000,0.633000,0.633000,0.633000,0.633000,0.633000,0.633000,0.633000,0.633000,0.633000,0.633000,0.633000,0.633000,0.633000,0.633000,0.633000,0.633000,0.633000,0.633000,0.633000,0.633000,0.633000,0.633000,0.633000,0.633000,0.633000,0.633000,0.633000,0.633000,0.633000,0.633000,0.633000,0.633000,0.633000,0.633000,0.633000,0.633000,0.633000,0.633000,0.633000,0.633000,0.633000,0.633000,0.633000,0.633000,0.633000,0.632000,0.632000,0.632000,0.632000,0.632000,0.632000,0.632000,0.632000,0.632000,0.632000,0.632000,0.632000,0.632000,0.631000,0.631000,0.631000,0.631000,0.631000,0.631000,0.631000,0.631000,0.631000,0.631000,0.631000,0.631000,0.631000,0.631000,0.631000,0.631000,0.630000,0.630000,0.630000,0.630000,0.630000,0.630000,0.630000,0.630000,0.629000,0.629000,0.629000,0.630000,0.630000,0.630000,0.630000,0.630000,0.629000,0.629000,0.629000,0.629000,0.629000,0.628000,0.628000,0.628000,0.628000,0.627000,0.627000,0.627000,0.627000,0.627000,0.627000,0.628000,0.628000,0.628000,0.628000,0.628000,0.629000,0.629000,0.629000,0.631000,0.631000,0.631000,0.632000,0.632000,0.632000,0.632000,0.633000,0.633000,0.633000,0.633000,0.633000,0.633000,0.633000,0.633000,0.633000,0.633000,0.633000,0.633000,0.634000,0.634000,0.634000,0.634000,0.634000,0.634000,0.634000,0.633000,0.633000,0.633000,0.633000,0.633000,0.633000,0.635000,0.635000,1.612000,1.612000,1.612000
0.478000,0.480000,0.480000,0.483000,0.485000,0.485000,0.488000,0.490000,0.491000,0.491000,0.492000,0.492000,0.494000,0.494000,0.494000,0.494000,0.494000,0.494000,0.494000,0.497000,0.496000,0.496000,0.495000,0.493000,0.493000,0.491000,0.491000,0.488000,0.488000,0.000000,0.000000,0.000000,0.000000,0.000000,0.000000,0.000000,0.000000,0.000000,0.000000,0.000000,0.000000,0.000000,0.000000,0.000000,0.000000,0.631000,0.631000,0.631000,0.631000,0.631000,0.632000,0.632000,0.632000,0.632000,0.633000,0.633000,0.633000,0.633000,0.633000,0.633000,0.633000,0.633000,0.633000,0.633000,0.633000,0.633000,0.633000,0.633000,0.633000,0.633000,0.633000,0.633000,0.633000,0.633000,0.634000,0.634000,0.634000,0.634000,0.634000,0.634000,0.633000,0.633000,0.634000,0.634000,0.634000,0.634000,0.634000,0.634000,0.634000,0.634000,0.634000,0.634000,0.633000,0.633000,0.633000,0.633000,0.633000,0.633000,0.633000,0.633000,0.633000,0.633000,0.633000,0.633000,0.633000,0.633000,0.633000,0.633000,0.633000,0.633000,0.633000,0.633000,0.633000,0.633000,0.633000,0.633000,0.633000,0.633000,0.633000,0.633000,0.633000,0.633000,0.633000,0.633000,0.633000,0.633000,0.633000,0.634000,0.634000,0.633000,0.633000,0.633000,0.634000,0.634000,0.634000,0.634000,0.634000,0.634000,0.634000,0.635000,0.635000,0.635000,0.635000,0.635000,0.635000,0.635000,0.635000,0.635000,0.635000,0.635000,0.635000,0.635000,0.635000,0.635000,0.635000,0.635000,0.634000,0.634000,0.634000,0.634000,0.634000,0.634000,0.634000,0.634000,0.633000,0.633000,0.633000,0.633000,0.633000,0.633000,0.633000,0.633000,0.633000,0.633000,0.633000,0.633000,0.633000,0.633000,0.633000,0.633000,0.632000,0.632000,0.632000,0.632000,0.632000,0.632000,0.632000,0.632000,0.632000,0.632000,0.632000,0.632000,0.632000,0.632000,0.632000,0.632000,0.632000,0.632000,0.633000,0.633000,0.633000,0.633000,0.633000,0.633000,0.633000,0.633000,0.633000,0.633000,0.633000,0.633000,0.633000,0.633000,0.632000,0.632000,0.632000,0.632000,0.632000,0.632000,0.632000,0.632000,0.632000,0.632000,0.632000,0.631000,0.631000,0.631000,0.631000,0.631000,0.631000,0.631000,0.631000,0.631000,0.631000,0.631000,0.631000,0.631000,0.631000,0.630000,0.630000,0.630000,0.630000,0.630000,0.630000,0.630000,0.630000,0.630000,0.630000,0.630000,0.630000,0.629000,0.629000,0.629000,0.629000,0.629000,0.629000,0.629000,0.630000,0.630000,0.630000,0.630000,0.630000,0.630000,0.630000,0.629000,0.629000,0.629000,0.630000,0.630000,0.630000,0.630000,0.630000,0.629000,0.629000,0.629000,0.629000,0.629000,0.628000,0.628000,0.628000,0.628000,0.627000,0.627000,0.627000,0.627000,0.627000,0.627000,0.628000,0.628000,0.628000,0.628000,0.628000,0.629000,0.629000,0.629000,0.631000,0.631000,0.631000,0.632000,0.631000,0.631000,0.631000,0.631000,0.632000,0.632000,0.632000,0.632000,0.632000,0.632000,0.632000,0.632000,0.632000,0.632000,0.633000,0.633000,0.633000,0.633000,0.633000,0.633000,0.633000,0.633000,0.633000,0.633000,0.632000,0.632000,0.632000,0.633000,1.603000,0.631000,0.631000,1.607000,1.607000
0.000000,0.000000,0.000000,0.000000,0.000000,0.000000,0.496000,0.496000,0.498000,0.498000,0.499000,0.500000,0.500000,0.500000,0.500000,0.500000,0.500000,0.499000,0.497000,0.497000,0.496000,0.496000,0.495000,0.493000,0.493000,0.491000,0.491000,0.488000,0.488000,0.000000,0.629000,0.629000,0.629000,0.629000,0.628000,0.628000,0.628000,0.628000,0.629000,0.629000,0.629000,0.629000,0.629000,0.629000,0.629000,0.629000,0.629000,0.630000,0.630000,0.631000,0.631000,0.631000,0.631000,0.631000,0.632000,0.632000,0.631000,0.631000,0.632000,0.632000,0.632000,0.632000,0.633000,0.633000,0.633000,0.633000,0.633000,0.633000,0.633000,0.633000,0.633000,0.633000,0.633000,0.633000,0.634000,0.634000,0.634000,0.634000,0.634000,0.634000,0.633000,0.633000,0.634000,0.634000,0.634000,0.634000,0.634000,0.634000,0.634000,0.634000,0.634000,0.634000,0.633000,0.633000,0.633000,0.633000,0.633000,0.633000,0.633000,0.633000,0.633000,0.633000,0.633000,0.633000,0.633000,0.632000,0.632000,0.632000,0.632000,0.632000,0.632000,0.632000,0.632000,0.632000,0.632000,0.632000,0.632000,0.632000,0.632000,0.632000,0.632000,0.632000,0.633000,0.633000,0.633000,0.633000,0.633000,0.633000,0.633000,0.633000,0.633000,0.633000,0.633000,0.633000,0.633000,0.633000,0.633000,0.633000,0.633000,0.633000,0.633000,0.633000,0.633000,0.633000,0.633000,0.633000,0.633000,0.633000,0.633000,0.633000,0.633000,0.633000,0.633000,0.633000,0.633000,0.633000,0.633000,0.633000,0.633000,0.633000,0.633000,0.633000,0.633000,0.633000,0.633000,0.633000,0.633000,0.633000,0.633000,0.633000,0.632000,0.632000,0.632000,0.633000,0.632000,0.632000,0.632000,0.632000,0.632000,0.632000,0.632000,0.632000,0.632000,0.632000,0.632000,0.632000,0.632000,0.632000,0.632000,0.632000,0.632000,0.632000,0.632000,0.632000,0.632000,0.632000,0.632000,0.632000,0.633000,0.633000,0.633000,0.633000,0.633000,0.633000,0.633000,0.633000,0.633000,0.633000,0.633000,0.633000,0.633000,0.633000,0.632000,0.632000,0.632000,0.632000,0.632000,0.632000,0.632000,0.632000,0.632000,0.632000,0.632000,0.631000,0.631000,0.631000,0.630000,0.630000,0.630000,0.630000,0.630000,0.629000,0.629000,0.629000,0.629000,0.629000,0.629000,0.629000,0.629000,0.629000,0.629000,0.629000,0.629000,0.629000,0.629000,0.629000,0.629000,0.629000,0.629000,0.629000,0.628000,0.628000,0.628000,0.628000,0.629000,0.629000,0.629000,0.629000,0.629000,0.629000,0.629000,0.629000,0.629000,0.629000,0.629000,0.629000,0.629000,0.629000,0.629000,0.629000,0.629000,0.629000,0.629000,0.628000,0.628000,0.628000,0.627000,0.627000,0.627000,0.626000,0.626000,0.626000,0.626000,0.626000,0.626000,0.626000,0.626000,0.626000,0.626000,0.626000,0.627000,0.628000,0.628000,0.628000,0.629000,0.629000,0.629000,0.630000,0.630000,0.631000,0.631000,0.631000,0.632000,0.632000,0.632000,0.632000,0.632000,0.632000,0.632000,0.632000,0.632000,0.632000,0.633000,0.633000,0.633000,0.633000,0.633000,0.633000,0.633000,0.633000,0.633000,0.633000,0.632000,0.632000,0.632000,1.603000,1.603000,0.631000,0.631000,1.607000,1.607000
0.000000,0.000000,0.000000,0.000000,0.000000,0.000000,0.000000,0.000000,0.000000,0.000000,0.505000,0.505000,0.505000,0.505000,0.000000,0.000000,0.000000,0.503000,0.502000,0.502000,0.500000,0.500000,0.000000,0.000000,0.000000,0.000000,0.000000,0.000000,0.000000,0.000000,0.629000,0.629000,0.629000,0.629000,0.628000,0.628000,0.628000,0.628000,0.628000,0.628000,0.628000,0.628000,0.628000,0.629000,0.629000,0.629000,0.629000,0.630000,0.630000,0.630000,0.630000,0.631000,0.631000,0.631000,0.631000,0.631000,0.631000,0.631000,0.631000,0.631000,0.631000,0.631000,0.631000,0.631000,0.631000,0.632000,0.632000,0.632000,0.632000,0.632000,0.632000,0.632000,0.632000,0.633000,0.633000,0.633000,0.633000,0.633000,0.633000,0.633000,0.633000,0.633000,0.633000,0.633000,0.633000,0.633000,0.633000,0.633000,0.633000,0.633000,0.633000,0.633000,0.633000,0.633000,0.633000,0.633000,0.633000,0.633000,0.633000,0.632000,0.632000,0.632000,0.632000,0.632000,0.632000,0.632000,0.632000,0.632000,0.632000,0.632000,0.632000,0.632000,0.632000,0.632000,0.632000,0.632000,0.632000,0.632000,0.632000,0.632000,0.632000,0.632000,0.633000,0.633000,0.633000,0.633000,0.633000,0.633000,0.633000,0.633000,0.633000,0.633000,0.633000,0.633000,0.633000,0.633000,0.633000,0.633000,0.633000,0.633000,0.633000,0.633000,0.633000,0.633000,0.633000,0.633000,0.633000,0.633000,0.633000,0.633000,0.633000,0.633000,0.633000,0.633000,0.633000,0.633000,0.632000,0.632000,0.632000,0.633000,0.633000,0.633000,0.633000,0.633000,0.632000,0.632000,0.632000,0.632000,0.632000,0.632000,0.632000,0.632000,0.632000,0.632000,0.631000,0.631000,0.631000,0.631000,0.631000,0.631000,0.631000,0.631000,0.631000,0.631000,0.631000,0.631000,0.631000,0.631000,0.631000,0.631000,0.631000,0.631000,0.631000,0.631000,0.631000,0.631000,0.631000,0.631000,0.631000,0.631000,0.631000,0.631000,0.631000,0.631000,0.631000,0.632000,0.632000,0.631000,0.631000,0.631000,0.631000,0.631000,0.631000,0.631000,0.631000,0.631000,0.631000,0.631000,0.631000,0.631000,0.631000,0.631000,0.631000,0.631000,0.631000,0.631000,0.630000,0.630000,0.630000,0.630000,0.630000,0.629000,0.629000,0.629000,0.629000,0.629000,0.629000,0.629000,0.629000,0.629000,0.629000,0.629000,0.629000,0.629000,0.629000,0.629000,0.629000,0.629000,0.629000,0.629000,0.628000,0.628000,0.628000,0.628000,0.629000,0.629000,0.629000,0.629000,0.629000,0.629000,0.629000,0.629000,0.629000,0.629000,0.629000,0.629000,0.629000,0.629000,0.628000,0.628000,0.628000,0.628000,0.628000,0.627000,0.626000,0.626000,0.626000,0.626000,0.626000,0.626000,0.626000,0.625000,0.625000,0.625000,0.625000,0.625000,0.625000,0.625000,0.625000,0.625000,0.626000,0.626000,0.626000,0.627000,0.628000,0.628000,0.628000,0.629000,0.629000,0.629000,0.629000,0.629000,0.630000,0.630000,0.631000,0.631000,0.631000,0.631000,0.631000,0.631000,0.631000,0.631000,0.631000,0.631000,0.631000,0.631000,0.631000,0.631000,0.631000,0.631000,0.631000,0.631000,0.631000,0.631000,0.631000,0.631000,0.631000,0.630000,0.630000,0.630000,0.630000
